0.390103 -0.0177044 2.287
0.397518 -0.0177572 2.294
0.404091 -0.0177714 2.296
0.409243 -0.0177235 2.29
0.415269 -0.0177144 2.289
0.42184 -0.0177285 2.291
0.428234 -0.0177348 2.292
0.434822 -0.0177489 2.294
0.441612 -0.0177706 2.297
0.448026 -0.0177769 2.298
0.454445 -0.0177832 2.299
0.460067 -0.0177585 2.296
0.466483 -0.0177648 2.297
0.472904 -0.0177711 2.298
0.479954 -0.0178005 2.302
0.486813 -0.0178222 2.305
0.493688 -0.0178439 2.308
0.500144 -0.0178501 2.309
0.507043 -0.0178718 2.312
0.510626 -0.0177775 2.3
0.515717 -0.0177373 2.295
0.520097 -0.017674 2.287
0.526734 -0.0176879 2.289
0.533381 -0.0177018 2.291
0.541215 -0.0177544 2.298
0.546465 -0.017722 2.294
0.551211 -0.0176741 2.288
0.559577 -0.0177421 2.297
0.56405 -0.0176864 2.29
0.569729 -0.0176695 2.288
0.528764 -0.0140912 1.827
0.529298 -0.0139743 1.812
0.558865 -0.0140997 1.829
0.569024 -0.0142296 1.846
0.584249 -0.0144828 1.879
0.909058 -0.0160795 2.091
0.916462 -0.0161101 2.095
0.922128 -0.0161101 2.095
0.930011 -0.0161485 2.1
0.93926 -0.01621 2.108
0.943176 -0.0161792 2.104
0.947072 -0.0161486 2.1
0.951857 -0.0161333 2.098
0.954808 -0.0160873 2.092
0.957729 -0.0160414 2.086
0.963391 -0.0160416 2.086
0.969521 -0.0160496 2.087
0.970519 -0.015973 2.077
0.974285 -0.0159427 2.073
0.978979 -0.0159277 2.071
0.984616 -0.0159282 2.071
0.986431 -0.0158672 2.063
0.991571 -0.0158601 2.062
0.995743 -0.0158376 2.059
0.99893 -0.0157998 2.054
1.00209 -0.0157621 2.049
1.00671 -0.0157475 2.047
1.00934 -0.0157021 2.041
1.01094 -0.0156414 2.033
1.01251 -0.0155808 2.025
1.01605 -0.015551 2.021
1.02108 -0.0155443 2.02
1.02561 -0.01553 2.018
1.02809 -0.015485 2.012
1.02951 -0.0154246 2.004
1.03192 -0.0153796 1.998
1.03742 -0.0153809 1.998
1.03876 -0.0153207 1.99
1.03795 -0.0152297 1.978
1.03919 -0.0151696 1.97
1.04357 -0.0151557 1.968
1.04635 -0.0151187 1.963
1.04697 -0.015051 1.954
1.04915 -0.0150065 1.948
1.05456 -0.0150082 1.948
1.06323 -0.0150563 1.954
1.06812 -0.0150505 1.953
1.07246 -0.015037 1.951
1.0779 -0.015039 1.951
1.08334 -0.0150411 1.951
1.08879 -0.0150432 1.951
1.09537 -0.0150609 1.953
1.09971 -0.0150477 1.951
1.10348 -0.0150269 1.948
1.11009 -0.0150448 1.95
1.11328 -0.0150164 1.946
1.12049 -0.0150421 1.949
1.1254 -0.0150371 1.948
1.12974 -0.0150243 1.946
1.13291 -0.0149963 1.942
1.13371 -0.0149373 1.934
1.13566 -0.0148939 1.928
1.13463 -0.0148119 1.917
1.13829 -0.0147918 1.914
1.14434 -0.0148027 1.915
1.151 -0.0148214 1.917
1.16191 -0.0148943 1.926
1.16863 -0.0149132 1.928
1.1699 -0.0148626 1.921
1.1748 -0.0148584 1.92
1.18155 -0.0148776 1.922
1.18771 -0.0148891 1.923
1.19202 -0.0148774 1.921
1.1982 -0.0148891 1.922
1.20627 -0.0149242 1.926
1.2062 -0.0148586 1.917
1.20798 -0.0148163 1.911
1.21927 -0.0148904 1.92
1.21977 -0.0148327 1.912
1.2196 -0.0147674 1.903
1.21681 -0.0146711 1.89
1.23012 -0.0147689 1.902
1.23572 -0.0147737 1.902
1.24199 -0.0147864 1.903
1.23581 -0.0146515 1.885
1.24535 -0.0147032 1.891
1.25295 -0.0147317 1.894
1.25992 -0.0147526 1.896
1.27226 -0.0148359 1.906
1.27997 -0.0148648 1.909
1.28502 -0.0148627 1.908
1.28603 -0.014814 1.901
1.28089 -0.0146952 1.885
1.28727 -0.014709 1.886
1.2875 -0.0146527 1.878
1.28012 -0.0145106 1.859
1.29616 -0.014634 1.874
1.30832 -0.0146548 1.875
1.31058 -0.0146224 1.87
-0.70941 -0.010709 1.013
-0.706299 -0.0107041 1.013
-0.701115 -0.0106676 1.01
-0.691119 -0.0105574 1
-0.675 -0.0103523 0.981
-0.639824 -0.00985216 0.934
-0.596756 -0.00922598 0.875
-0.526962 -0.00905859 0.866
-0.681507 -0.0118747 1.136
-0.673491 -0.0117885 1.128
-0.66196 -0.0116397 1.114
-0.649923 -0.0114806 1.099
-0.635621 -0.0112799 1.08
-0.623189 -0.0111106 1.064
-0.614932 -0.0110145 1.055
-0.60499 -0.0108872 1.043
-0.596274 -0.0107809 1.033
-0.585896 -0.0106434 1.02
-0.579024 -0.0105685 1.013
-0.573901 -0.010525 1.009
-0.569937 -0.0105025 1.007
-0.564862 -0.0104591 1.003
-0.558131 -0.0103846 0.996
-0.553673 -0.0103518 0.993
-0.54757 -0.0102878 0.987
-0.543713 -0.0102655 0.985
-0.538222 -0.0102121 0.98
-0.534948 -0.0102003 0.979
-0.52842 -0.0101261 0.972
-0.522476 -0.0100624 0.966
-0.517643 -0.0100196 0.962
-0.513906 -0.00999766 0.96
-0.510716 -0.00998618 0.959
-0.466876 -0.0102219 0.983
-0.462784 -0.0101904 0.98
-0.45871 -0.0101589 0.977
-0.454187 -0.0101171 0.973
-0.449687 -0.0100753 0.969
-0.445672 -0.0100439 0.966
-0.442132 -0.010023 0.964
-0.439973 -0.0100332 0.965
-0.407519 -0.0103366 0.994
-0.406469 -0.0103785 0.998
-0.406612 -0.0104516 1.005
-0.407521 -0.0105456 1.014
-0.407185 -0.0106083 1.02
-0.40761 -0.0106919 1.028
-0.411143 -0.0108588 1.044
-0.521473 -0.0142632 1.371
-0.522317 -0.0143887 1.383
-0.522722 -0.0145039 1.394
-0.521579 -0.0145775 1.401
-0.51929 -0.01462 1.405
-0.516613 -0.014652 1.408
-0.514649 -0.0147049 1.413
-0.512296 -0.0147474 1.417
-0.510281 -0.0148003 1.422
-0.124195 -0.0174002 1.659
-0.119885 -0.0174324 1.662
-0.115559 -0.0174645 1.665
-0.110882 -0.0174441 1.663
-0.10596 -0.0173818 1.657
-0.101192 -0.0173404 1.653
-0.0961538 -0.0172465 1.644
-0.0911083 -0.0171421 1.634
0.0504544 -0.015393 1.467
0.056132 -0.0158649 1.512
0.0796685 -0.0184449 1.758
0.0868716 -0.018969 1.808
0.0904373 -0.0186852 1.781
0.0922279 -0.0164072 1.564
0.0958183 -0.0162913 1.553
0.100379 -0.0163432 1.558
0.12852 -0.0192895 1.839
0.134773 -0.0194671 1.856
0.140589 -0.0195712 1.866
0.146538 -0.0196858 1.877
0.152628 -0.0198108 1.889
0.183717 -0.0223364 2.13
0.192105 -0.0226395 2.159
0.198816 -0.0227328 2.168
0.202365 -0.0224696 2.143
0.205 -0.0221225 2.11
0.209751 -0.0220166 2.1
0.216704 -0.0221413 2.112
0.163162 -0.0158285 1.51
0.193124 -0.0152648 1.457
0.197762 -0.0153162 1.462
0.203669 -0.0154619 1.476
0.322846 -0.0235773 2.251
0.329839 -0.0236386 2.257
0.336269 -0.0236579 2.259
0.343163 -0.0237086 2.264
0.3507 -0.0238011 2.273
0.357343 -0.0238308 2.276
0.362563 -0.0237663 2.27
0.367588 -0.0236913 2.263
0.373729 -0.0236895 2.263
0.380708 -0.0237401 2.268
0.387713 -0.0237906 2.273
0.395264 -0.0238725 2.281
0.401977 -0.0239021 2.284
0.407276 -0.0238479 2.279
0.412727 -0.0238042 2.275
0.418892 -0.0238023 2.275
0.425617 -0.0238318 2.278
0.432356 -0.0238613 2.281
0.438534 -0.0238594 2.281
0.44588 -0.0239202 2.287
0.451676 -0.0238973 2.285
0.457059 -0.0238535 2.281
0.462623 -0.0238202 2.278
0.468786 -0.0238182 2.278
0.476199 -0.0238789 2.284
0.48301 -0.0239083 2.287
0.488338 -0.0238644 2.283
0.492994 -0.0237892 2.276
0.49783 -0.0237245 2.27
0.504408 -0.0237434 2.272
0.510322 -0.0237309 2.271
0.515775 -0.0236975 2.268
0.52121 -0.0236641 2.265
0.527559 -0.0236725 2.266
0.535325 -0.0237436 2.273
0.540746 -0.0237102 2.27
0.546632 -0.0236977 2.269
0.550805 -0.0236121 2.261
0.556166 -0.0235787 2.258
0.530209 -0.0191041 1.832
0.529881 -0.0189148 1.814
0.559169 -0.0190738 1.83
0.569023 -0.0192391 1.846
0.583626 -0.0195606 1.877
0.896062 -0.0215638 2.074
0.901233 -0.0215532 2.073
0.919383 -0.021584 2.076
0.929012 -0.0216776 2.085
0.932417 -0.0216256 2.08
0.937602 -0.0216153 2.079
0.940968 -0.0215635 2.074
0.946592 -0.0215637 2.074
0.95176 -0.0215536 2.073
0.956925 -0.0215435 2.072
0.959301 -0.0214711 2.065
0.961641 -0.0213988 2.058
0.966766 -0.0213889 2.057
0.97378 -0.0214207 2.06
0.976534 -0.0213589 2.054
0.978303 -0.0212765 2.046
0.982435 -0.021246 2.043
0.988974 -0.0212677 2.045
0.99504 -0.021279 2.046
0.998181 -0.0212279 2.041
1.0013 -0.021177 2.036
1.00143 -0.0210636 2.025
1.00348 -0.020992 2.018
1.00601 -0.0209308 2.012
1.01152 -0.0209321 2.012
1.01552 -0.0209023 2.009
1.02002 -0.0208829 2.007
1.02042 -0.0207804 1.997
1.02026 -0.0206675 1.986
1.02521 -0.0206588 1.985
1.03068 -0.0206605 1.985
1.03301 -0.0205999 1.979
1.03428 -0.0205185 1.971
1.03392 -0.0204059 1.96
1.03721 -0.0203663 1.956
1.03942 -0.020306 1.95
1.04268 -0.0202665 1.946
1.04646 -0.0202375 1.943
1.05293 -0.0202607 1.945
1.05779 -0.0202527 1.944
1.06265 -0.0202448 1.943
1.06586 -0.0202058 1.939
1.07127 -0.0202085 1.939
1.07501 -0.02018 1.936
1.07931 -0.020162 1.934
1.0864 -0.0201963 1.937
1.09351 -0.0202306 1.94
1.09895 -0.0202338 1.94
1.10497 -0.0202475 1.941
1.10756 -0.0201987 1.936
1.11531 -0.0202439 1.94
1.11905 -0.0202161 1.937
1.12394 -0.0202094 1.936
1.12474 -0.0201296 1.928
1.12786 -0.0200917 1.924
1.13154 -0.0200643 1.921
1.13463 -0.0200266 1.917
1.13175 -0.0198844 1.903
1.13478 -0.0198469 1.899
1.1396 -0.0198407 1.898
1.15528 -0.0200229 1.915
1.16379 -0.0200798 1.92
1.1699 -0.020095 1.921
1.17175 -0.0200371 1.915
1.17787 -0.0200525 1.916
1.17968 -0.0199948 1.91
1.17713 -0.0198638 1.897
1.18386 -0.0198901 1.899
1.18874 -0.019885 1.898
1.19614 -0.0199219 1.901
1.20925 -0.0200534 1.913
1.21673 -0.0200907 1.916
1.21977 -0.0200547 1.912
1.21832 -0.0199454 1.901
1.21295 -0.0197732 1.884
1.21848 -0.0197795 1.884
1.22598 -0.0198174 1.887
1.23677 -0.019908 1.895
1.2332 -0.0197676 1.881
1.2335 -0.0196904 1.873
1.23642 -0.0196553 1.869
1.25794 -0.0199148 1.893
1.27226 -0.020059 1.906
1.29177 -0.0202006 1.918
1.28874 -0.0200715 1.905
1.28293 -0.0199004 1.888
1.27089 -0.0196343 1.862
1.27174 -0.0195686 1.855
1.27049 -0.0194714 1.845
1.28026 -0.0195432 1.851
1.31301 -0.0199637 1.89
1.29926 -0.0196768 1.862
1.30778 -0.0197281 1.866
-0.713618 -0.0135775 1.019
-0.709094 -0.0135446 1.017
-0.700426 -0.0134321 1.009
-0.695271 -0.0133862 1.006
-0.679134 -0.0131278 0.987
-0.647364 -0.0125638 0.945
-0.600853 -0.0117081 0.881
-0.522096 -0.0113119 0.858
-0.649714 -0.0142685 1.083
-0.644237 -0.0142127 1.079
-0.634035 -0.0140516 1.067
-0.619765 -0.0137986 1.048
-0.610316 -0.013651 1.037
-0.600349 -0.0134904 1.025
-0.593951 -0.0134089 1.019
-0.58701 -0.0133143 1.012
-0.580114 -0.0132198 1.005
-0.572686 -0.0131123 0.997
-0.568165 -0.0130706 0.994
-0.563665 -0.013029 0.991
-0.559752 -0.0130006 0.989
-0.55529 -0.0129591 0.986
-0.549727 -0.0128915 0.981
-0.545868 -0.0128633 0.979
-0.53925 -0.0127695 0.972
-0.534331 -0.0127152 0.968
-0.527789 -0.0126216 0.961
-0.523474 -0.0125806 0.958
-0.518093 -0.0125134 0.953
-0.513823 -0.0124725 0.95
-0.511725 -0.0124842 0.951
-0.51016 -0.012509 0.953
-0.508587 -0.0125339 0.955
-0.458802 -0.0126607 0.966
-0.455229 -0.0126341 0.964
-0.451668 -0.0126075 0.962
-0.448119 -0.012581 0.96
-0.445511 -0.0125808 0.96
-0.442442 -0.0125674 0.959
-0.439839 -0.0125673 0.959
-0.437238 -0.0125671 0.959
-0.412848 -0.0131984 1.007
-0.412578 -0.0132774 1.013
-0.414298 -0.013422 1.024
-0.422793 -0.0137895 1.052
-0.530597 -0.017909 1.366
-0.531164 -0.018054 1.377
-0.531673 -0.0181991 1.388
-0.52984 -0.0182655 1.393
-0.528737 -0.0183582 1.4
-0.526096 -0.0183985 1.403
-0.523812 -0.0184519 1.407
-0.521137 -0.0184923 1.41
-0.517713 -0.0185064 1.411
-0.51574 -0.0185731 1.416
-0.513018 -0.0186135 1.419
-0.510997 -0.0186802 1.424
-0.123446 -0.0217986 1.649
-0.119163 -0.0218391 1.652
-0.115142 -0.0219325 1.659
-0.110948 -0.0219993 1.664
-0.106471 -0.0220133 1.665
-0.101987 -0.0220273 1.666
-0.0969135 -0.0219089 1.657
-0.0915538 -0.0217113 1.642
0.0503853 -0.0193745 1.465
0.0560574 -0.0199692 1.51
0.0813447 -0.0237367 1.795
0.0874476 -0.0240667 1.82
0.0936866 -0.0243967 1.845
0.0988845 -0.0244357 1.848
0.0929939 -0.0208511 1.577
0.096558 -0.0206917 1.565
0.102827 -0.0211009 1.596
0.129009 -0.0244045 1.846
0.134917 -0.0245622 1.858
0.140739 -0.0246935 1.868
0.146303 -0.0247718 1.874
0.151415 -0.0247708 1.874
0.191392 -0.0284285 2.151
0.19799 -0.0285329 2.159
0.201514 -0.0282012 2.134
0.204998 -0.0278827 2.11
0.209949 -0.0277756 2.102
0.216497 -0.0278799 2.11
0.163485 -0.0199895 1.513
0.19352 -0.019279 1.46
0.198167 -0.0193438 1.465
0.203944 -0.0195142 1.478
0.320119 -0.0294654 2.232
0.326768 -0.0295162 2.236
0.333439 -0.029567 2.24
0.34013 -0.0296177 2.244
0.347921 -0.0297608 2.255
0.354986 -0.0298379 2.261
0.360485 -0.0297829 2.257
0.365961 -0.029728 2.253
0.372075 -0.0297258 2.253
0.378524 -0.0297499 2.255
0.385323 -0.0298005 2.259
0.39249 -0.0298773 2.265
0.398807 -0.0298882 2.266
0.403699 -0.0297936 2.259
0.408552 -0.0296989 2.252
0.415024 -0.029723 2.254
0.422252 -0.0297997 2.26
0.429511 -0.0298764 2.266
0.436225 -0.0299136 2.269
0.443538 -0.0299902 2.275
0.4495 -0.0299746 2.274
0.454653 -0.0299062 2.269
0.459168 -0.0297983 2.261
0.465697 -0.0298222 2.263
0.47161 -0.0298065 2.262
0.477939 -0.0298172 2.263
0.482133 -0.0296961 2.254
0.487793 -0.0296672 2.252
0.493222 -0.0296252 2.249
0.50041 -0.0296885 2.254
0.506949 -0.0297123 2.256
0.511452 -0.0296176 2.249
0.517296 -0.0296019 2.248
0.523133 -0.0295862 2.247
0.529906 -0.0296231 2.25
0.535741 -0.0296074 2.249
0.541088 -0.0295653 2.246
0.547149 -0.0295627 2.246
0.547789 -0.0292706 2.224
0.531655 -0.0241441 1.837
0.531048 -0.0238924 1.818
0.559779 -0.0240665 1.832
0.568713 -0.0242354 1.845
0.583313 -0.0246406 1.876
0.76934 -0.0261171 1.992
0.872855 -0.0266417 2.033
0.883532 -0.0267986 2.045
0.888625 -0.0267852 2.044
0.906097 -0.026811 2.046
0.913418 -0.0268634 2.05
0.916728 -0.0267979 2.045
0.919562 -0.0267194 2.039
0.92645 -0.0267589 2.042
0.933813 -0.0268116 2.046
0.944415 -0.0269561 2.057
0.949998 -0.0269565 2.057
0.952797 -0.0268784 2.051
0.954165 -0.026761 2.042
0.956897 -0.026683 2.036
0.963853 -0.0267231 2.039
0.967502 -0.0266714 2.035
0.971609 -0.026633 2.032
0.978108 -0.0266602 2.034
0.984138 -0.0266743 2.035
0.990177 -0.0266886 2.036
0.993291 -0.0266243 2.031
0.994906 -0.0265207 2.023
0.995492 -0.026391 2.013
0.997519 -0.0263007 2.006
0.999511 -0.0262104 1.999
1.00449 -0.0261989 1.998
1.00946 -0.0261876 1.997
1.0124 -0.0261238 1.992
1.0097 -0.0259159 1.976
1.01615 -0.0259441 1.978
1.02056 -0.02592 1.976
1.02445 -0.0258828 1.973
1.02414 -0.0257407 1.962
1.02641 -0.0256644 1.956
1.0297 -0.0256144 1.952
1.03244 -0.0255513 1.947
1.0341 -0.0254621 1.94
1.03786 -0.0254255 1.937
1.04431 -0.0254546 1.939
1.04969 -0.0254575 1.939
1.05344 -0.0254212 1.936
1.05719 -0.025385 1.933
1.06092 -0.0253489 1.93
1.06409 -0.0252997 1.926
1.06835 -0.0252769 1.924
1.0715 -0.025228 1.92
1.08023 -0.0253105 1.926
1.08844 -0.0253801 1.931
1.09442 -0.0253972 1.932
1.09529 -0.0252961 1.924
1.09441 -0.0251557 1.913
1.1021 -0.0252126 1.917
1.10692 -0.0252039 1.916
1.11291 -0.0252216 1.917
1.11425 -0.0251342 1.91
1.12024 -0.0251522 1.911
1.13096 -0.0252756 1.92
1.13049 -0.0251491 1.91
1.13057 -0.0250358 1.901
1.1312 -0.0249357 1.893
1.1354 -0.0249148 1.891
1.14804 -0.0250785 1.903
1.15834 -0.0251897 1.911
1.16321 -0.0251825 1.91
1.16625 -0.0251358 1.906
1.16865 -0.0250761 1.901
1.17166 -0.0250297 1.897
1.16969 -0.0248778 1.885
1.1739 -0.024858 1.883
1.1806 -0.0248912 1.885
1.18419 -0.0248585 1.882
1.19029 -0.0248787 1.883
1.21356 -0.025256 1.911
1.20575 -0.0249859 1.89
1.21192 -0.0250067 1.891
1.21167 -0.0248955 1.882
1.21332 -0.024824 1.876
1.21169 -0.0246864 1.865
1.21916 -0.0247344 1.868
1.22927 -0.0248355 1.875
1.23088 -0.0247645 1.869
1.24305 -0.0249058 1.879
1.24931 -0.0249281 1.88
1.26092 -0.0250567 1.889
1.27194 -0.0251722 1.897
1.28639 -0.0253545 1.91
1.28469 -0.0252183 1.899
1.26527 -0.0247368 1.862
1.25793 -0.0244944 1.843
1.25461 -0.0243317 1.83
1.27532 -0.0246347 1.852
1.29341 -0.0248849 1.87
1.27272 -0.02439 1.832
1.2902 -0.0246274 1.849
1.29588 -0.0246386 1.849
-0.720628 -0.0165434 1.029
-0.711192 -0.0163912 1.02
-0.701127 -0.0162232 1.01
-0.69044 -0.0160395 0.999
-0.678452 -0.0158239 0.986
-0.65011 -0.0152237 0.949
-0.609042 -0.0143194 0.893
-0.573752 -0.0135442 0.845
-0.55363 -0.0131223 0.819
-0.548476 -0.0130531 0.815
-0.544023 -0.013 0.812
-0.519057 -0.0135693 0.853
-0.536598 -0.014091 0.886
-0.618521 -0.0163897 1.031
-0.616775 -0.0164179 1.033
-0.604921 -0.016176 1.018
-0.596704 -0.0160297 1.009
-0.58972 -0.0159153 1.002
-0.583366 -0.0158169 0.996
-0.578798 -0.0157663 0.993
-0.572512 -0.0156681 0.987
-0.566263 -0.01557 0.981
-0.561775 -0.0155197 0.978
-0.557879 -0.0154853 0.976
-0.554567 -0.0154669 0.975
-0.549566 -0.015401 0.971
-0.490994 -0.0153013 0.967
-0.48834 -0.0153003 0.967
-0.486191 -0.0153151 0.968
-0.484038 -0.01533 0.969
-0.482379 -0.0153607 0.971
-0.479228 -0.015344 0.97
-0.476085 -0.0153274 0.969
-0.471972 -0.0152792 0.966
-0.429114 -0.0153369 0.97
-0.426489 -0.015337 0.97
-0.425613 -0.0154003 0.974
-0.423414 -0.0154163 0.975
-0.421642 -0.0154481 0.977
-0.41986 -0.0154799 0.979
-0.418495 -0.0155275 0.982
-0.418808 -0.0156385 0.989
-0.419504 -0.0157653 0.997
-0.420995 -0.0159238 1.007
-0.421186 -0.0160349 1.014
-0.424642 -0.0162725 1.029
-0.163863 -0.027026 1.695
-0.159243 -0.0270273 1.695
-0.154075 -0.0269329 1.689
-0.14894 -0.0268385 1.683
-0.143493 -0.0266802 1.673
-0.137353 -0.0263783 1.654
-0.131317 -0.0260764 1.635
-0.126314 -0.0259658 1.628
-0.122547 -0.0261104 1.637
-0.118369 -0.0261752 1.641
-0.114308 -0.0262719 1.647
-0.110547 -0.0264483 1.658
-0.106406 -0.0265449 1.664
-0.102109 -0.0266096 1.668
-0.0970298 -0.0264668 1.659
-0.0916646 -0.0262283 1.644
0.0503505 -0.0233609 1.464
0.0560199 -0.0240785 1.509
0.0810269 -0.0285286 1.788
0.0873028 -0.0289906 1.817
0.0931781 -0.029277 1.835
0.0989373 -0.0294996 1.849
0.103648 -0.029403 1.843
0.128099 -0.0292386 1.833
0.134771 -0.0296044 1.856
0.140814 -0.0298106 1.869
0.146146 -0.0298573 1.872
0.190145 -0.0340781 2.137
0.197071 -0.0342678 2.149
0.200852 -0.0339154 2.127
0.2049 -0.0336268 2.109
0.209948 -0.0335135 2.102
0.216188 -0.0335915 2.107
0.163727 -0.0235597 1.478
0.165708 -0.0232715 1.46
0.168521 -0.0231108 1.45
0.171873 -0.0230298 1.445
0.193784 -0.0232936 1.462
0.198436 -0.0233718 1.467
0.20408 -0.0235614 1.479
0.316961 -0.035202 2.21
0.324574 -0.0353749 2.221
0.331204 -0.0354361 2.225
0.337854 -0.0354974 2.229
0.344679 -0.0355745 2.234
0.351215 -0.0356197 2.237
0.357448 -0.035633 2.238
0.364172 -0.0356941 2.242
0.370587 -0.0357233 2.244
0.377011 -0.0357525 2.246
0.382592 -0.035702 2.243
0.389368 -0.035763 2.247
0.394933 -0.0357125 2.244
0.400301 -0.0356461 2.24
0.405829 -0.0355955 2.237
0.412259 -0.0356246 2.239
0.419073 -0.0356854 2.243
0.426475 -0.0357939 2.25
0.432569 -0.035791 2.25
0.440026 -0.0358994 2.257
0.445543 -0.0358488 2.254
0.451444 -0.0358299 2.253
0.455916 -0.0356997 2.245
0.463019 -0.0357763 2.25
0.46848 -0.0357256 2.247
0.473712 -0.035659 2.243
0.476783 -0.0354334 2.229
0.482592 -0.0354145 2.228
0.488614 -0.0354115 2.228
0.495745 -0.035488 2.233
0.501778 -0.0354849 2.233
0.508038 -0.0354978 2.234
0.512921 -0.0354153 2.229
0.518241 -0.0353646 2.226
0.522838 -0.0352662 2.22
0.537645 -0.0350506 2.207
0.58141 -0.0324676 2.047
0.533099 -0.0292112 1.842
0.532214 -0.0288916 1.822
0.560082 -0.0290542 1.833
0.568711 -0.0292421 1.845
0.581756 -0.0296518 1.871
0.598078 -0.03022 1.907
0.754391 -0.0311186 1.967
0.762773 -0.0312437 1.975
0.853711 -0.0316401 2.001
0.871435 -0.0318922 2.017
0.876886 -0.0318919 2.017
0.881903 -0.0318758 2.016
0.886035 -0.0318282 2.013
0.892811 -0.0318755 2.016
0.900496 -0.0319546 2.021
0.903279 -0.0318598 2.015
0.907386 -0.0318125 2.012
0.915108 -0.0318918 2.017
0.925598 -0.032066 2.028
0.93661 -0.0322562 2.04
0.943071 -0.0322883 2.042
0.94583 -0.032194 2.036
0.944353 -0.0319575 2.021
0.947028 -0.0318634 2.015
0.952509 -0.0318643 2.015
0.957518 -0.0318494 2.014
0.962525 -0.0318347 2.013
0.968973 -0.0318675 2.015
0.975435 -0.0319004 2.017
0.979479 -0.0318543 2.014
0.980088 -0.0316975 2.004
0.983596 -0.0316358 2
0.986097 -0.0315426 1.994
0.989564 -0.031481 1.99
0.992513 -0.0314038 1.985
0.998455 -0.0314216 1.986
1.0034 -0.0314078 1.985
1.0063 -0.0313309 1.98
1.00612 -0.0311591 1.969
1.01051 -0.0311299 1.967
1.01488 -0.0311007 1.965
1.01822 -0.0310401 1.961
1.02049 -0.0309478 1.955
1.02588 -0.0309507 1.955
1.03023 -0.030922 1.953
1.02926 -0.030735 1.941
1.04855 -0.0305305 1.927
1.05063 -0.0304392 1.921
1.05653 -0.030459 1.922
1.06023 -0.0304155 1.919
1.06558 -0.0304197 1.919
1.07038 -0.0304082 1.918
1.07575 -0.0304127 1.918
1.07999 -0.0303856 1.916
1.09826 -0.0301728 1.901
1.10247 -0.0301466 1.899
1.1055 -0.0300887 1.895
1.11145 -0.0301103 1.896
1.11742 -0.0301321 1.897
1.12458 -0.0301859 1.9
1.13117 -0.030224 1.902
1.13061 -0.0300715 1.892
1.13181 -0.0299667 1.885
1.13659 -0.0299576 1.884
1.14259 -0.0299804 1.885
1.15347 -0.0301306 1.894
1.1534 -0.0299947 1.885
1.15698 -0.0299543 1.882
1.15623 -0.0298027 1.872
1.16225 -0.0298264 1.873
1.17141 -0.0299299 1.879
1.18124 -0.0300495 1.886
1.17916 -0.0298667 1.874
1.18525 -0.0298911 1.875
1.19389 -0.0299795 1.88
1.20193 -0.0300523 1.884
1.20488 -0.0299976 1.88
1.20974 -0.029991 1.879
1.21527 -0.0300005 1.879
1.20716 -0.0296748 1.858
1.21068 -0.0296368 1.855
1.21945 -0.0297267 1.86
1.23813 -0.0300568 1.88
1.23445 -0.0298435 1.866
1.24267 -0.0299183 1.87
1.24091 -0.0297532 1.859
1.25854 -0.0300526 1.877
1.27225 -0.0302564 1.889
1.26305 -0.0299157 1.867
1.26392 -0.0298154 1.86
1.25453 -0.0294748 1.838
1.26421 -0.0295833 1.844
1.26982 -0.0295959 1.844
1.2865 -0.0298656 1.86
1.27204 -0.0294129 1.831
1.2637 -0.0291047 1.811
1.28328 -0.0294396 1.831
-0.717835 -0.0193008 1.025
-0.7112 -0.0191979 1.02
-0.702523 -0.0190388 1.012
-0.692521 -0.0188423 1.002
-0.679835 -0.0185711 0.988
-0.659023 -0.0180747 0.962
-0.620643 -0.0170906 0.91
-0.579869 -0.0160324 0.854
-0.55634 -0.0154442 0.823
-0.549155 -0.0153069 0.816
-0.544698 -0.0152448 0.813
-0.517843 -0.0158555 0.851
-0.528728 -0.0162616 0.873
-0.565411 -0.0174683 0.938
-0.584329 -0.0181347 0.974
-0.580955 -0.0181122 0.973
-0.575213 -0.0180153 0.968
-0.569504 -0.0179185 0.963
-0.565593 -0.0178777 0.961
-0.561698 -0.017837 0.959
-0.558401 -0.017815 0.958
-0.553953 -0.0177559 0.955
-0.550103 -0.0177155 0.953
-0.546269 -0.0176752 0.951
-0.543592 -0.0176722 0.951
-0.539781 -0.0176321 0.949
-0.536551 -0.0176107 0.948
-0.48744 -0.0177915 0.96
-0.485311 -0.0178088 0.961
-0.482676 -0.0178076 0.961
-0.479044 -0.0177695 0.959
-0.474431 -0.0176943 0.955
-0.470336 -0.0176378 0.952
-0.466751 -0.0175998 0.95
-0.463667 -0.0175804 0.949
-0.429113 -0.0179629 0.97
-0.427368 -0.018 0.972
-0.426924 -0.0180927 0.977
-0.426454 -0.0181854 0.982
-0.426389 -0.0182967 0.988
-0.426293 -0.0184081 0.994
-0.426592 -0.018538 1.001
-0.428124 -0.0187235 1.011
-0.435072 -0.0191499 1.034
-0.548202 -0.0249314 1.346
-0.54943 -0.0251545 1.358
-0.550192 -0.0253591 1.369
-0.163475 -0.0315784 1.691
-0.158302 -0.0314679 1.685
-0.152706 -0.0312639 1.674
-0.147611 -0.0311533 1.668
-0.142634 -0.0310613 1.663
-0.136273 -0.0306517 1.641
-0.129548 -0.03013 1.613
-0.125071 -0.0301125 1.612
-0.121572 -0.0303379 1.624
-0.117358 -0.0303951 1.627
-0.112988 -0.0304149 1.628
-0.109013 -0.0305467 1.635
-0.104998 -0.0306785 1.642
-0.101006 -0.030829 1.65
-0.0962686 -0.0307552 1.646
-0.0912177 -0.0305693 1.636
0.05035 -0.0273605 1.464
0.0558709 -0.0281262 1.505
0.0975987 -0.034083 1.824
0.102803 -0.0341567 1.828
0.109654 -0.0317994 1.702
0.134406 -0.0345795 1.851
0.141114 -0.0349892 1.873
0.145911 -0.0349131 1.869
0.139317 -0.0311558 1.668
0.195786 -0.0398733 2.135
0.200189 -0.0395913 2.12
0.204607 -0.0393279 2.106
0.209846 -0.0392326 2.101
0.215878 -0.0392866 2.104
0.163374 -0.0282296 1.512
0.163836 -0.027612 1.479
0.165934 -0.0272931 1.462
0.168636 -0.0270862 1.451
0.171991 -0.0269913 1.446
0.19418 -0.0273377 1.465
0.198975 -0.0274479 1.471
0.20463 -0.02767 1.483
0.315238 -0.0410051 2.198
0.32311 -0.0412448 2.211
0.329266 -0.0412606 2.212
0.335577 -0.041295 2.214
0.341899 -0.0413294 2.216
0.348858 -0.0414384 2.222
0.355529 -0.04151 2.226
0.362545 -0.0416188 2.232
0.368602 -0.0416157 2.232
0.374154 -0.0415567 2.229
0.379689 -0.0414976 2.226
0.385379 -0.0414572 2.224
0.391234 -0.0414354 2.223
0.39726 -0.0414322 2.223
0.403467 -0.0414476 2.224
0.410046 -0.0415002 2.227
0.416267 -0.0415155 2.228
0.422492 -0.0415308 2.229
0.428913 -0.0415647 2.231
0.435344 -0.0415986 2.233
0.441389 -0.0415952 2.233
0.447433 -0.0415918 2.233
0.451851 -0.0414394 2.225
0.458283 -0.0414732 2.227
0.463473 -0.0413952 2.223
0.468429 -0.0412987 2.218
0.471646 -0.0410531 2.205
0.47804 -0.0410869 2.207
0.484444 -0.0411206 2.209
0.491523 -0.0412102 2.214
0.497281 -0.0411881 2.213
0.501212 -0.041017 2.204
0.506704 -0.0409763 2.202
0.511254 -0.0408611 2.196
0.516476 -0.0408018 2.193
0.572802 -0.0378253 2.036
0.573171 -0.0374877 2.018
0.534254 -0.0342868 1.846
0.532504 -0.0338568 1.823
0.559469 -0.0339915 1.831
0.568092 -0.0342116 1.843
0.579888 -0.0346172 1.865
0.594625 -0.0351899 1.896
0.745289 -0.036263 1.957
0.749403 -0.0362057 1.954
0.753503 -0.0361484 1.951
0.822544 -0.0366344 1.978
0.845604 -0.0367055 1.982
0.853963 -0.0368346 1.989
0.859337 -0.0368342 1.989
0.864278 -0.0368153 1.988
0.870091 -0.0368335 1.989
0.875031 -0.0368148 1.988
0.883953 -0.0369628 1.996
0.889802 -0.0369813 1.997
0.893418 -0.0369074 1.993
0.897013 -0.0368335 1.989
0.90422 -0.0369078 1.993
0.915101 -0.0371304 2.005
0.922837 -0.0372235 2.01
0.929217 -0.0372611 2.012
0.931429 -0.0371322 2.005
0.934074 -0.0370218 1.999
0.936689 -0.0369116 1.993
0.939274 -0.0368015 1.987
0.943732 -0.0367656 1.985
0.949138 -0.0367668 1.985
0.96128 -0.0370274 1.999
0.964797 -0.0369548 1.995
0.965377 -0.0367711 1.985
0.961505 -0.0364208 1.966
0.96786 -0.0364597 1.968
0.975714 -0.0365542 1.973
0.980615 -0.0365377 1.972
0.986515 -0.0365584 1.973
0.991419 -0.0365422 1.972
0.994805 -0.0364705 1.968
0.998682 -0.0364174 1.965
1.0005 -0.0362904 1.958
1.00537 -0.0362746 1.957
1.00714 -0.0361478 1.95
1.01407 -0.0362065 1.953
1.01893 -0.0361911 1.952
1.02274 -0.0361388 1.949
1.0239 -0.0359939 1.941
1.02608 -0.0358863 1.935
1.0442 -0.0356095 1.919
1.04626 -0.0355026 1.913
1.05158 -0.0355072 1.913
1.0547 -0.0354377 1.909
1.05781 -0.0353684 1.905
1.06146 -0.0353177 1.902
1.0651 -0.0352672 1.899
1.06647 -0.0351426 1.892
1.09133 -0.0351161 1.889
1.09899 -0.0351968 1.893
1.10434 -0.0352034 1.893
1.10794 -0.0351544 1.89
1.10976 -0.0350497 1.884
1.11334 -0.0350009 1.881
1.12107 -0.0350827 1.885
1.12345 -0.0349971 1.88
1.1192 -0.0347068 1.864
1.12996 -0.0348822 1.873
1.13471 -0.0348716 1.872
1.14495 -0.0350289 1.88
1.14423 -0.034851 1.87
1.14285 -0.0346546 1.859
1.1445 -0.0345515 1.853
1.15543 -0.0347283 1.862
1.16331 -0.0348122 1.866
1.17373 -0.0349709 1.874
1.17603 -0.0348873 1.869
1.17261 -0.0346358 1.855
1.18564 -0.0348701 1.867
1.19747 -0.0350673 1.877
1.19527 -0.0348537 1.865
1.20267 -0.0349206 1.868
1.20493 -0.0348382 1.863
1.20327 -0.0346438 1.852
1.20743 -0.0346179 1.85
1.2188 -0.0347981 1.859
1.22563 -0.0348476 1.861
1.22719 -0.0347475 1.855
1.22075 -0.0344228 1.837
1.23491 -0.0346791 1.85
1.2371 -0.0345984 1.845
1.24331 -0.0346305 1.846
1.24345 -0.0344939 1.838
1.2551 -0.0346767 1.847
1.2641 -0.0347847 1.852
1.25737 -0.034461 1.834
1.27741 -0.0348704 1.855
1.26646 -0.0344341 1.831
1.2665 -0.0342988 1.823
1.26859 -0.0342201 1.818
1.26927 -0.034104 1.811
-0.711542 -0.0219284 1.016
-0.707723 -0.0218968 1.015
-0.700449 -0.0217576 1.009
-0.690456 -0.0215325 0.999
-0.675715 -0.0211569 0.982
-0.660401 -0.0207603 0.964
-0.633609 -0.0199983 0.929
-0.594814 -0.0188497 0.876
-0.558374 -0.0177667 0.826
-0.547815 -0.0175018 0.814
-0.544704 -0.0174736 0.813
-0.517847 -0.0181735 0.851
-0.525098 -0.0185109 0.867
-0.551552 -0.0195312 0.915
-0.566336 -0.0201457 0.944
-0.565435 -0.0202053 0.947
-0.563332 -0.0202224 0.948
-0.559454 -0.0201755 0.946
-0.557357 -0.0201928 0.947
-0.55233 -0.0201036 0.943
-0.548495 -0.0200571 0.941
-0.544096 -0.0199894 0.938
-0.541448 -0.0199858 0.938
-0.538804 -0.0199823 0.938
-0.536736 -0.0200002 0.939
-0.534096 -0.0199969 0.939
-0.533158 -0.0200575 0.942
-0.481349 -0.0201376 0.948
-0.477232 -0.0200724 0.945
-0.474139 -0.0200499 0.944
-0.471053 -0.0200274 0.943
-0.467477 -0.0199837 0.941
-0.464903 -0.0199826 0.941
-0.461839 -0.0199604 0.94
-0.459759 -0.0199806 0.941
-0.43221 -0.0207374 0.977
-0.432644 -0.0208861 0.984
-0.433916 -0.0210772 0.993
-0.434705 -0.0212472 1.001
-0.436747 -0.0214809 1.012
-0.557284 -0.028297 1.333
-0.557427 -0.0284887 1.342
-0.557934 -0.0287017 1.352
-0.557569 -0.0288724 1.36
-0.556347 -0.0290006 1.366
-0.555093 -0.0291289 1.372
-0.552602 -0.0291936 1.375
-0.162506 -0.0359804 1.681
-0.157267 -0.0358323 1.674
-0.15161 -0.0355771 1.662
-0.146459 -0.0354289 1.655
-0.141947 -0.0354304 1.655
-0.136022 -0.035068 1.638
-0.129949 -0.0346413 1.618
-0.12476 -0.0344286 1.608
-0.120897 -0.0345798 1.615
-0.116636 -0.034624 1.617
-0.11153 -0.0344111 1.607
-0.105278 -0.0338127 1.579
-0.100649 -0.0337068 1.574
-0.0972711 -0.0340291 1.589
-0.0951563 -0.034844 1.627
-0.0907707 -0.0348665 1.628
0.0502807 -0.0313171 1.462
0.055796 -0.0321948 1.503
0.0635676 -0.0341647 1.595
0.0696696 -0.0350422 1.636
0.0715542 -0.0338205 1.579
0.096688 -0.038701 1.807
0.102296 -0.0389569 1.819
0.106259 -0.0385916 1.802
0.108216 -0.0375625 1.754
0.107398 -0.0356982 1.667
0.109933 -0.0350545 1.637
0.14051 -0.0399325 1.865
0.145128 -0.0398024 1.859
0.137061 -0.035132 1.641
0.195142 -0.045552 2.128
0.199998 -0.0453358 2.118
0.20441 -0.045034 2.104
0.209344 -0.0448605 2.096
0.214952 -0.0448368 2.095
0.164777 -0.0326343 1.525
0.164167 -0.0317124 1.482
0.166273 -0.0313469 1.465
0.168867 -0.0310884 1.453
0.171989 -0.0309368 1.446
0.194046 -0.0313124 1.464
0.198703 -0.0314173 1.469
0.204353 -0.0316719 1.481
0.312653 -0.0466142 2.18
0.320623 -0.0469104 2.194
0.32703 -0.0469713 2.197
0.332846 -0.0469466 2.196
0.339273 -0.0470075 2.199
0.346028 -0.047111 2.204
0.35297 -0.0472358 2.21
0.359131 -0.0472537 2.211
0.365131 -0.0472503 2.211
0.370794 -0.047204 2.209
0.376956 -0.0472218 2.21
0.382257 -0.0471327 2.206
0.388415 -0.0471505 2.207
0.394577 -0.0471682 2.208
0.40165 -0.0472927 2.214
0.408018 -0.0473317 2.216
0.413461 -0.0472638 2.213
0.419266 -0.0472387 2.212
0.424103 -0.0471068 2.206
0.430272 -0.0471243 2.207
0.436839 -0.0471845 2.21
0.443422 -0.0472447 2.213
0.448192 -0.0471127 2.207
0.453134 -0.0470021 2.202
0.458257 -0.0469128 2.198
0.46399 -0.0468875 2.197
0.46822 -0.0467128 2.189
0.473704 -0.0466662 2.187
0.478738 -0.0465769 2.183
0.484638 -0.0465729 2.183
0.490536 -0.0465689 2.183
0.494841 -0.0464156 2.176
0.499337 -0.0462837 2.17
0.5038 -0.0461517 2.164
0.510113 -0.0461904 2.166
0.56258 -0.0429963 2.019
0.566328 -0.0428649 2.013
0.567487 -0.0425419 1.998
0.53512 -0.0393628 1.849
0.532793 -0.0388273 1.824
0.558854 -0.0389179 1.829
0.568089 -0.0392127 1.843
0.578642 -0.0395925 1.861
0.593368 -0.0402489 1.892
0.741479 -0.0413517 1.947
0.743649 -0.0411798 1.939
0.746549 -0.0410505 1.933
0.749418 -0.0409213 1.927
0.811011 -0.0416725 1.963
0.835791 -0.0415832 1.959
0.841512 -0.0416038 1.96
0.848104 -0.041667 1.963
0.855583 -0.0417727 1.968
0.861342 -0.0417936 1.969
0.867548 -0.0418358 1.971
0.873767 -0.0418782 1.973
0.881337 -0.0419843 1.978
0.884004 -0.041857 1.972
0.889798 -0.0418785 1.973
0.895146 -0.0418788 1.973
0.905061 -0.0420915 1.983
0.917328 -0.0424104 1.998
0.919057 -0.0422413 1.99
0.919352 -0.0420086 1.979
0.921926 -0.0418821 1.973
0.924 -0.0417345 1.966
0.92793 -0.041672 1.963
0.934225 -0.0417157 1.965
0.942445 -0.0418445 1.971
0.952145 -0.0420371 1.98
0.95561 -0.0419538 1.976
0.954193 -0.0416584 1.962
0.954171 -0.0414267 1.951
0.958518 -0.0413863 1.949
0.966814 -0.0415159 1.955
0.972661 -0.0415394 1.956
0.979517 -0.0416056 1.959
0.981869 -0.0414808 1.953
0.985203 -0.0413986 1.949
0.991061 -0.0414227 1.95
0.994884 -0.041362 1.947
0.997154 -0.0412377 1.941
0.999396 -0.0411136 1.935
1.00784 -0.0412446 1.941
1.01684 -0.041397 1.948
1.01645 -0.041167 1.937
1.01705 -0.0409797 1.928
1.01707 -0.0407712 1.918
1.03985 -0.0406453 1.911
1.04134 -0.0405015 1.904
1.04499 -0.0404429 1.901
1.04532 -0.0402568 1.892
1.04838 -0.0401773 1.888
1.05421 -0.0402043 1.889
1.05893 -0.0401889 1.888
1.06197 -0.0401099 1.884
1.08441 -0.0399942 1.877
1.09087 -0.0400441 1.879
1.09268 -0.0399237 1.873
1.09915 -0.039974 1.875
1.10153 -0.0398753 1.87
1.10092 -0.0396701 1.86
1.10621 -0.0396783 1.86
1.10852 -0.0395801 1.855
1.11681 -0.0396955 1.86
1.12152 -0.039683 1.859
1.12927 -0.0397776 1.863
1.13644 -0.039851 1.866
1.1369 -0.0396898 1.858
1.14101 -0.0396569 1.856
1.14327 -0.0395601 1.851
1.148 -0.039549 1.85
1.15647 -0.0396664 1.855
1.16122 -0.0396558 1.854
1.1666 -0.0396669 1.854
1.1663 -0.0394855 1.845
1.17676 -0.0396683 1.853
1.18153 -0.0396587 1.852
1.18695 -0.0396708 1.852
1.18273 -0.0393617 1.837
1.18812 -0.0393743 1.837
1.19223 -0.0393442 1.835
1.20352 -0.0395503 1.844
1.21095 -0.0396281 1.847
1.21445 -0.0395774 1.844
1.20802 -0.039205 1.826
1.21611 -0.039305 1.83
1.22291 -0.0393625 1.832
1.22907 -0.0393988 1.833
1.22918 -0.0392419 1.825
1.23061 -0.0391283 1.819
1.25308 -0.0396819 1.844
1.25729 -0.039655 1.842
1.25053 -0.0392839 1.824
1.26365 -0.0395376 1.835
1.27339 -0.039684 1.841
1.26234 -0.039184 1.817
1.26582 -0.0391369 1.814
1.26579 -0.0389822 1.806
-0.708051 -0.0246039 1.011
-0.702853 -0.0245197 1.008
-0.696989 -0.0244114 1.004
-0.688392 -0.0242062 0.996
-0.677789 -0.0239286 0.985
-0.65767 -0.0233114 0.96
-0.639074 -0.0227434 0.937
-0.602971 -0.0215453 0.888
-0.56379 -0.0202271 0.834
-0.547822 -0.0197343 0.814
-0.546051 -0.019751 0.815
-0.517852 -0.0204916 0.851
-0.522075 -0.0207516 0.862
-0.540103 -0.0215652 0.896
-0.559141 -0.0224266 0.932
-0.559469 -0.022542 0.937
-0.558583 -0.0226094 0.94
-0.554728 -0.0225566 0.938
-0.550888 -0.022504 0.936
-0.546477 -0.0224274 0.933
-0.543253 -0.0223991 0.932
-0.540619 -0.0223949 0.932
-0.538566 -0.0224149 0.933
-0.53651 -0.022435 0.934
-0.533881 -0.0224312 0.934
-0.531825 -0.0224514 0.935
-0.529766 -0.0224718 0.936
-0.47475 -0.0223947 0.935
-0.471679 -0.0223692 0.934
-0.468615 -0.0223437 0.933
-0.466558 -0.0223663 0.934
-0.463504 -0.022341 0.933
-0.460951 -0.0223398 0.933
-0.458401 -0.0223386 0.933
-0.457806 -0.0224333 0.937
-0.440615 -0.0238371 0.996
-0.445835 -0.0242679 1.014
-0.564668 -0.0317127 1.325
-0.566172 -0.0320004 1.337
-0.567192 -0.0322643 1.348
-0.567735 -0.0325044 1.358
-0.565733 -0.0326009 1.362
-0.563298 -0.0326736 1.365
-0.560438 -0.0327223 1.367
-0.557975 -0.0327951 1.37
-0.556306 -0.0329159 1.375
-0.554209 -0.0330127 1.379
-0.162311 -0.0405207 1.679
-0.15689 -0.0403054 1.67
-0.151334 -0.0400418 1.659
-0.146192 -0.0398747 1.652
-0.141945 -0.0399489 1.655
-0.137183 -0.0398782 1.652
-0.131714 -0.0395902 1.64
-0.126232 -0.0392779 1.627
-0.121195 -0.0390863 1.619
-0.116418 -0.0389671 1.614
-0.109793 -0.0381959 1.582
-0.102143 -0.03699 1.532
-0.0972586 -0.0367257 1.521
-0.0958621 -0.0378135 1.566
-0.0944534 -0.0389979 1.615
-0.0903236 -0.0391198 1.62
0.0502801 -0.035311 1.462
0.0556097 -0.0361798 1.498
0.0623712 -0.0377972 1.565
0.0672414 -0.0381345 1.579
0.0696954 -0.0371434 1.538
0.0743275 -0.0373599 1.547
0.0963123 -0.0434675 1.8
0.101676 -0.0436594 1.808
0.105432 -0.0431751 1.788
0.10766 -0.0421355 1.745
0.10759 -0.0403232 1.67
0.11067 -0.0397906 1.648
0.116495 -0.0402479 1.667
0.139604 -0.0447353 1.853
0.144658 -0.0447336 1.853
0.137226 -0.0396606 1.643
0.194314 -0.051144 2.119
0.199712 -0.0510451 2.115
0.204408 -0.0507771 2.104
0.209242 -0.0505574 2.095
0.214437 -0.0504342 2.09
0.16494 -0.0359256 1.489
0.166838 -0.0354652 1.47
0.16933 -0.0351496 1.457
0.172225 -0.0349305 1.448
0.194309 -0.0353539 1.466
0.198836 -0.0354481 1.47
0.204212 -0.035687 1.48
0.309351 -0.0520044 2.157
0.317843 -0.0524348 2.175
0.323752 -0.0524313 2.175
0.329356 -0.0523794 2.173
0.336183 -0.0525203 2.179
0.343356 -0.0527094 2.187
0.351209 -0.0529948 2.199
0.356528 -0.0528945 2.195
0.36298 -0.0529629 2.198
0.36844 -0.0528867 2.195
0.375076 -0.0529791 2.199
0.380174 -0.0528546 2.194
0.386123 -0.0528505 2.194
0.392428 -0.0528946 2.196
0.399469 -0.053035 2.202
0.405436 -0.0530308 2.202
0.412149 -0.0531229 2.206
0.416798 -0.0529501 2.199
0.422369 -0.0528977 2.197
0.427148 -0.052749 2.191
0.434661 -0.0529373 2.199
0.441214 -0.0530051 2.202
0.445142 -0.0527601 2.192
0.449632 -0.0525872 2.185
0.453458 -0.0523422 2.175
0.458495 -0.0522415 2.171
0.462654 -0.0520446 2.163
0.467419 -0.0519199 2.158
0.472594 -0.0518434 2.155
0.477973 -0.0517909 2.153
0.48379 -0.0517864 2.153
0.487105 -0.0515174 2.142
0.490589 -0.0512725 2.132
0.495182 -0.0511479 2.127
0.501395 -0.0511916 2.129
0.557561 -0.0480476 2.001
0.560135 -0.0478034 1.991
0.562654 -0.0475593 1.981
0.557378 -0.0466672 1.944
0.535406 -0.0444069 1.85
0.533081 -0.0438032 1.825
0.558851 -0.0438814 1.829
0.568394 -0.0442377 1.844
0.578638 -0.044642 1.861
0.596187 -0.045598 1.901
0.705741 -0.0460151 1.921
0.719801 -0.0462496 1.931
0.72537 -0.0462711 1.932
0.734241 -0.0461707 1.928
0.738277 -0.0460966 1.925
0.739209 -0.0458311 1.914
0.74436 -0.0458291 1.914
0.751862 -0.0459708 1.92
0.83687 -0.046359 1.937
0.846018 -0.0465739 1.946
0.852593 -0.0466454 1.949
0.859185 -0.046717 1.952
0.866682 -0.0468365 1.957
0.873316 -0.0469083 1.96
0.87728 -0.0468366 1.957
0.880327 -0.0467172 1.952
0.884711 -0.0466697 1.95
0.891825 -0.0467659 1.954
0.901718 -0.0470059 1.964
0.909821 -0.0471502 1.97
0.911455 -0.0469596 1.962
0.912581 -0.0467452 1.953
0.915542 -0.0466267 1.948
0.920368 -0.0466041 1.947
0.930423 -0.0468448 1.957
0.937187 -0.0469182 1.96
0.946857 -0.0471354 1.969
0.949325 -0.0469936 1.963
0.949332 -0.0467323 1.952
0.951728 -0.0465908 1.946
0.95311 -0.0464015 1.938
0.960388 -0.0464998 1.942
0.967194 -0.0465742 1.945
0.97302 -0.0466009 1.946
0.973325 -0.0463644 1.936
0.975096 -0.0461998 1.929
0.982932 -0.0463228 1.934
0.988245 -0.0463262 1.934
0.991507 -0.046234 1.93
0.995268 -0.0461658 1.927
1.00369 -0.0463135 1.933
1.00902 -0.0463176 1.933
1.00858 -0.0460583 1.922
1.00756 -0.0457751 1.91
1.01337 -0.0458037 1.911
1.03659 -0.0456856 1.905
1.03861 -0.0455474 1.899
1.03895 -0.0453375 1.89
1.03648 -0.0450077 1.876
1.0395 -0.0449179 1.872
1.04529 -0.0449484 1.873
1.05109 -0.044979 1.874
1.05295 -0.0448418 1.868
1.07228 -0.044591 1.856
1.08043 -0.0447192 1.861
1.08394 -0.0446555 1.858
1.09096 -0.0447362 1.861
1.09152 -0.0445527 1.853
1.09264 -0.0443934 1.846
1.09373 -0.0442342 1.839
1.09896 -0.0442437 1.839
1.10781 -0.0443978 1.845
1.11429 -0.0444559 1.847
1.11837 -0.044418 1.845
1.12305 -0.0444044 1.844
1.12712 -0.0443669 1.842
1.13549 -0.0444984 1.847
1.1402 -0.0444856 1.846
1.14491 -0.0444731 1.845
1.14962 -0.0444608 1.844
1.14745 -0.0441835 1.832
1.14836 -0.0440269 1.825
1.16189 -0.0443532 1.838
1.16852 -0.0444144 1.84
1.17006 -0.0442828 1.834
1.16902 -0.0440547 1.824
1.17437 -0.0440685 1.824
1.17779 -0.04401 1.821
1.18445 -0.0440727 1.823
1.19636 -0.0443292 1.833
1.20375 -0.0444168 1.836
1.20524 -0.044287 1.83
1.20472 -0.0440848 1.821
1.2055 -0.0439312 1.814
1.21558 -0.044117 1.821
1.21165 -0.0437943 1.807
1.21438 -0.0437142 1.803
1.23062 -0.0441194 1.819
1.2463 -0.044501 1.834
1.2498 -0.0444464 1.831
1.23615 -0.0437849 1.803
1.24301 -0.0438521 1.805
1.25889 -0.0442357 1.82
1.2575 -0.0440121 1.81
1.25677 -0.0438129 1.801
1.28683 -0.0446849 1.836
-0.710164 -0.0274687 1.014
-0.704259 -0.0273478 1.01
-0.693529 -0.0270378 0.999
-0.682874 -0.0267284 0.988
-0.66679 -0.026203 0.969
-0.655625 -0.0258676 0.957
-0.634992 -0.0251544 0.931
-0.607054 -0.0241448 0.894
-0.571911 -0.0228393 0.846
-0.551196 -0.0221018 0.819
-0.547399 -0.0220394 0.817
-0.517248 -0.022783 0.85
-0.520263 -0.0230188 0.859
-0.533478 -0.0237101 0.885
-0.557947 -0.0249101 0.93
-0.456706 -0.0250497 0.94
-0.455108 -0.025102 0.942
-0.4535 -0.0251543 0.944
-0.451405 -0.02518 0.945
-0.450731 -0.0252857 0.949
-0.449092 -0.0253383 0.951
-0.447444 -0.0253909 0.953
-0.444853 -0.0253903 0.953
-0.44412 -0.0254963 0.957
-0.443828 -0.025629 0.962
-0.445803 -0.025895 0.972
-0.446813 -0.0261078 0.98
-0.447781 -0.0263207 0.988
-0.448257 -0.026507 0.995
-0.455861 -0.0271196 1.018
-0.572873 -0.0349253 1.311
-0.574539 -0.0352453 1.323
-0.163372 -0.0453991 1.69
-0.157921 -0.0451595 1.681
-0.1527 -0.0449736 1.674
-0.147164 -0.0446801 1.663
-0.142372 -0.0446015 1.66
-0.137347 -0.0444422 1.654
-0.132275 -0.044256 1.647
-0.127239 -0.0440697 1.64
-0.121867 -0.0437489 1.628
-0.116344 -0.0433475 1.613
-0.108959 -0.0421934 1.57
-0.101475 -0.0409049 1.522
-0.097577 -0.0410138 1.526
-0.096779 -0.0424934 1.581
-0.094803 -0.0435698 1.621
-0.0902666 -0.0435174 1.619
0.0345864 -0.0396297 1.474
0.0377224 -0.0387151 1.44
0.0416272 -0.0386876 1.439
0.0456845 -0.0387945 1.443
0.050245 -0.0392778 1.461
0.0554976 -0.0401911 1.495
0.0614538 -0.0414538 1.542
0.065452 -0.0413185 1.537
0.0689694 -0.0409143 1.522
0.0737019 -0.0412358 1.534
0.0956155 -0.0480342 1.787
0.101169 -0.0483554 1.799
0.105136 -0.0479239 1.783
0.108954 -0.0474655 1.766
0.112421 -0.0468995 1.745
0.115571 -0.0462529 1.721
0.131715 -0.0487488 1.814
0.138773 -0.0494994 1.842
0.14372 -0.0494705 1.841
0.147125 -0.0489311 1.821
0.193853 -0.0567942 2.114
0.199993 -0.0568989 2.118
0.204891 -0.0566544 2.109
0.209439 -0.0563293 2.097
0.21464 -0.0561921 2.092
0.165825 -0.0402037 1.497
0.167063 -0.0395301 1.472
0.169444 -0.039152 1.458
0.172342 -0.038908 1.449
0.194174 -0.0393257 1.465
0.198834 -0.0394574 1.47
0.20421 -0.0397232 1.48
0.305762 -0.0572154 2.132
0.314186 -0.0576945 2.15
0.321366 -0.057932 2.159
0.327231 -0.057928 2.159
0.33402 -0.0580849 2.165
0.340369 -0.0581612 2.168
0.348331 -0.0585058 2.181
0.353601 -0.0583942 2.177
0.360169 -0.0584972 2.181
0.36575 -0.0584392 2.179
0.372684 -0.0585957 2.185
0.377917 -0.058484 2.181
0.383831 -0.0584795 2.181
0.389565 -0.0584482 2.18
0.395836 -0.0584972 2.182
0.402117 -0.0585463 2.184
0.408035 -0.0585416 2.184
0.414519 -0.0586173 2.187
0.419481 -0.0584786 2.182
0.424219 -0.0583131 2.176
0.428529 -0.058094 2.168
0.434798 -0.0581428 2.17
0.44006 -0.0580576 2.167
0.444895 -0.0579189 2.162
0.448658 -0.0576462 2.152
0.453211 -0.0574807 2.146
0.456661 -0.0571812 2.135
0.461999 -0.0571228 2.133
0.466449 -0.0569573 2.127
0.471753 -0.0568989 2.125
0.476595 -0.056787 2.121
0.478914 -0.0563806 2.106
0.546374 -0.0529253 1.98
0.551148 -0.0528674 1.978
0.55366 -0.0525957 1.968
0.557822 -0.0524844 1.964
0.554793 -0.0517051 1.935
0.536559 -0.0495366 1.854
0.533662 -0.0488111 1.827
0.559153 -0.0488714 1.83
0.568082 -0.0492147 1.843
0.577702 -0.0496113 1.858
0.589284 -0.0501682 1.879
0.594969 -0.0502177 1.881
0.632711 -0.0503785 1.888
0.638123 -0.0504017 1.889
0.640817 -0.0502114 1.882
0.662926 -0.0499549 1.873
0.691091 -0.0505296 1.895
0.696921 -0.05058 1.897
0.703503 -0.0506839 1.901
0.713088 -0.0510011 1.913
0.718984 -0.0510517 1.915
0.721489 -0.0508625 1.908
0.723956 -0.0506734 1.901
0.726386 -0.0504844 1.894
0.731097 -0.0504555 1.893
0.738525 -0.0506132 1.899
0.74442 -0.0506643 1.901
0.749538 -0.0506623 1.901
0.753466 -0.0505803 1.898
0.77245 -0.0508148 1.907
0.776366 -0.0507333 1.904
0.795095 -0.0509423 1.912
0.799835 -0.0509145 1.911
0.845156 -0.0514688 1.932
0.852583 -0.0516018 1.937
0.859153 -0.0516816 1.94
0.865742 -0.0517615 1.943
0.869211 -0.0516551 1.939
0.873112 -0.0515754 1.936
0.876999 -0.0514959 1.933
0.886805 -0.0517629 1.943
0.895291 -0.05195 1.95
0.905665 -0.0522439 1.961
0.908669 -0.0521117 1.956
0.908377 -0.0517931 1.944
0.910373 -0.0516079 1.937
0.918479 -0.0517692 1.943
0.923768 -0.0517708 1.943
0.928104 -0.0517192 1.941
0.933394 -0.0517211 1.941
0.939655 -0.0517765 1.943
0.943498 -0.0516988 1.94
0.94635 -0.0515679 1.935
0.950654 -0.0515172 1.933
0.955445 -0.0514932 1.932
0.959737 -0.0514428 1.93
0.963023 -0.0513393 1.926
0.964279 -0.0511293 1.918
0.968023 -0.0510527 1.915
0.97582 -0.0511896 1.92
0.982116 -0.0512467 1.922
0.984832 -0.0511173 1.917
0.986492 -0.0509348 1.91
0.991752 -0.0509391 1.91
0.996495 -0.050917 1.909
0.995989 -0.0506283 1.898
1.0007 -0.0506065 1.897
1.00542 -0.0505849 1.896
1.01333 -0.0507236 1.901
1.01699 -0.050649 1.898
1.02171 -0.0506281 1.897
1.02589 -0.0505806 1.895
1.03007 -0.0505333 1.893
1.03369 -0.0504596 1.89
1.03181 -0.050119 1.877
1.03152 -0.0498587 1.867
1.03395 -0.0497321 1.862
1.0386 -0.0497125 1.861
1.04268 -0.0496664 1.859
1.04394 -0.049487 1.852
1.0497 -0.0495215 1.853
1.05661 -0.0496097 1.856
1.05897 -0.0494843 1.851
1.06131 -0.0493591 1.846
1.06189 -0.0491539 1.838
1.0694 -0.0492699 1.842
1.07403 -0.0492523 1.841
1.08276 -0.0494224 1.847
1.08505 -0.0492983 1.842
1.08969 -0.0492815 1.841
1.08838 -0.0489973 1.83
1.09061 -0.0488739 1.825
1.11673 -0.0489303 1.825
1.12259 -0.0489692 1.826
1.13341 -0.0492231 1.835
1.13995 -0.0492896 1.837
1.1434 -0.0492222 1.834
1.13556 -0.0486718 1.813
1.14271 -0.048766 1.816
1.14736 -0.048753 1.815
1.16027 -0.0490897 1.827
1.15604 -0.0487012 1.812
1.15942 -0.0486354 1.809
1.16666 -0.0487312 1.812
1.17004 -0.048666 1.809
1.17992 -0.0488702 1.816
1.18397 -0.0488327 1.814
1.19196 -0.048957 1.818
1.19406 -0.0488393 1.813
1.20143 -0.0489374 1.816
1.21349 -0.0492247 1.826
1.20092 -0.0485147 1.799
1.20898 -0.0486409 1.803
1.20968 -0.0484707 1.796
1.21373 -0.0484358 1.794
1.2436 -0.0494275 1.83
1.23821 -0.0490154 1.814
1.23891 -0.0488466 1.807
1.23408 -0.0484617 1.792
1.24922 -0.0488615 1.806
1.25613 -0.0489372 1.808
1.25609 -0.0487426 1.8
1.26373 -0.0488463 1.803
-0.71508 -0.0304696 1.021
-0.707062 -0.0302468 1.014
-0.695624 -0.0298754 1.002
-0.679431 -0.029296 0.983
-0.668178 -0.0289259 0.971
-0.654266 -0.0284372 0.955
-0.640459 -0.0279492 0.939
-0.613855 -0.0268964 0.904
-0.581384 -0.0255771 0.86
-0.555916 -0.0245563 0.826
-0.549418 -0.0243686 0.82
-0.516037 -0.0250394 0.848
-0.517846 -0.0252402 0.855
-0.527455 -0.0258246 0.875
-0.550153 -0.0270581 0.917
-0.457679 -0.0276541 0.942
-0.456075 -0.0277116 0.944
-0.454942 -0.0277986 0.947
-0.452839 -0.0278269 0.948
-0.452157 -0.0279434 0.952
-0.450982 -0.0280306 0.955
-0.451671 -0.0282353 0.962
-0.451389 -0.0283814 0.967
-0.452474 -0.0286156 0.975
-0.453517 -0.0288498 0.983
-0.458187 -0.0293189 0.999
-0.581735 -0.0383567 1.307
-0.583506 -0.0387089 1.319
-0.584773 -0.0390318 1.33
-0.584671 -0.0392668 1.338
-0.583225 -0.0394139 1.343
-0.164433 -0.0503375 1.701
-0.159234 -0.0501623 1.695
-0.153975 -0.0499575 1.688
-0.147869 -0.0494566 1.671
-0.142199 -0.049074 1.658
-0.136847 -0.0487802 1.648
-0.132273 -0.0487526 1.647
-0.127858 -0.0487842 1.648
-0.122914 -0.0486085 1.642
-0.117064 -0.0480478 1.623
-0.10979 -0.0468358 1.582
-0.104073 -0.0462157 1.561
-0.10122 -0.0468686 1.583
-0.0992261 -0.0479952 1.621
-0.0955034 -0.0483521 1.633
-0.0904883 -0.0480574 1.623
0.0348205 -0.0439524 1.484
0.0377743 -0.0427079 1.442
0.0416844 -0.0426777 1.441
0.0457155 -0.0427659 1.444
0.0502099 -0.043239 1.46
0.0553483 -0.0441562 1.491
0.0610942 -0.0453991 1.533
0.0651529 -0.0453093 1.53
0.0689684 -0.0450713 1.522
0.073845 -0.0455144 1.537
0.095293 -0.0527371 1.781
0.100942 -0.0531501 1.795
0.105488 -0.0529708 1.789
0.110556 -0.053058 1.792
0.115705 -0.0531747 1.796
0.12074 -0.0532321 1.798
0.126624 -0.0536447 1.812
0.133165 -0.054294 1.834
0.138696 -0.0544991 1.841
0.143718 -0.054497 1.841
0.148173 -0.0542876 1.834
0.151254 -0.0536045 1.811
0.154639 -0.0530694 1.793
0.19275 -0.0622096 2.102
0.199424 -0.0625026 2.112
0.204791 -0.0623812 2.108
0.209836 -0.062171 2.101
0.21556 -0.0621678 2.101
0.223916 -0.0629043 2.126
0.166487 -0.0444662 1.503
0.167288 -0.0436058 1.474
0.16979 -0.0432188 1.461
0.172577 -0.0429205 1.451
0.194303 -0.043351 1.466
0.199101 -0.0435257 1.472
0.204483 -0.0438185 1.482
0.312866 -0.0632906 2.141
0.319278 -0.0634045 2.145
0.325408 -0.0634592 2.147
0.332164 -0.063632 2.153
0.338481 -0.0637162 2.156
0.345771 -0.0639776 2.165
0.35116 -0.0638842 2.162
0.357522 -0.0639682 2.165
0.362556 -0.0638157 2.16
0.369098 -0.0639291 2.164
0.374967 -0.0639242 2.164
0.38101 -0.0639489 2.165
0.386879 -0.0639439 2.165
0.392203 -0.0638503 2.162
0.397694 -0.0637863 2.16
0.403359 -0.0637517 2.159
0.409018 -0.0637171 2.158
0.415247 -0.063771 2.16
0.419341 -0.0635002 2.151
0.423978 -0.0633179 2.145
0.429583 -0.0632832 2.144
0.434979 -0.0632189 2.142
0.439333 -0.0630071 2.135
0.443024 -0.0627068 2.125
0.446237 -0.0623475 2.113
0.45088 -0.0621947 2.108
0.455929 -0.062101 2.105
0.4614 -0.0620662 2.104
0.465976 -0.0619135 2.099
0.533316 -0.058642 1.991
0.536786 -0.0584309 1.984
0.54049 -0.0582492 1.978
0.541678 -0.0578026 1.963
0.545292 -0.057621 1.957
0.547466 -0.0572923 1.946
0.552421 -0.0572581 1.945
0.551922 -0.0566646 1.925
0.537134 -0.0546289 1.856
0.534242 -0.0538298 1.829
0.559455 -0.0538668 1.831
0.567769 -0.0541861 1.842
0.576765 -0.0545643 1.855
0.586144 -0.0549718 1.869
0.591169 -0.0549676 1.869
0.665461 -0.0548221 1.866
0.675149 -0.0552006 1.879
0.680925 -0.0552561 1.881
0.683794 -0.0550767 1.875
0.688469 -0.0550442 1.874
0.695728 -0.0552174 1.88
0.705258 -0.0555669 1.892
0.710722 -0.0555933 1.893
0.713923 -0.0554437 1.888
0.714813 -0.055118 1.877
0.71948 -0.055086 1.876
0.725301 -0.0551422 1.878
0.731133 -0.0551985 1.88
0.73776 -0.0553136 1.884
0.740073 -0.0551058 1.877
0.74473 -0.0550743 1.876
0.750982 -0.0551604 1.879
0.758056 -0.0553052 1.884
0.765157 -0.0554502 1.889
