0.132602 -0.12965 1.447
0.137204 -0.130271 1.454
0.141747 -0.130803 1.46
0.175687 -0.129399 1.445
0.178125 -0.128317 1.433
0.180244 -0.127056 1.419
0.182415 -0.125884 1.406
0.184913 -0.124981 1.396
0.187761 -0.124347 1.389
0.190984 -0.123981 1.385
0.194747 -0.123974 1.385
0.235681 -0.127746 1.428
0.240728 -0.128363 1.435
0.246324 -0.129248 1.445
0.2518 -0.130044 1.454
0.852529 -0.110842 1.226
0.854207 -0.110623 1.223
0.854473 -0.110222 1.218
-0.590273 -0.0785149 0.842
-0.583487 -0.0779186 0.836
-0.576746 -0.0773236 0.83
-0.51513 -0.0753301 0.815
-0.513382 -0.0754002 0.816
-0.512884 -0.0756555 0.819
-0.512374 -0.0759111 0.822
-0.514953 -0.0766287 0.83
-0.51749 -0.0773464 0.838
-0.523059 -0.0785255 0.851
-0.531615 -0.0801657 0.869
-0.560964 -0.086519 0.939
-0.557688 -0.0864076 0.938
-0.553238 -0.0861124 0.935
-0.547632 -0.0856337 0.93
-0.528707 -0.0846296 0.92
-0.526682 -0.0847063 0.921
-0.527501 -0.085243 0.927
-0.525458 -0.0853204 0.928
-0.521723 -0.0851223 0.926
-0.512396 -0.0840056 0.914
-0.502025 -0.0827059 0.9
-0.493399 -0.0816826 0.889
-0.475586 -0.0807077 0.879
-0.477447 -0.081432 0.887
-0.488906 -0.0838087 0.913
-0.511943 -0.0882045 0.961
-0.487233 -0.0861399 0.939
-0.473803 -0.0842056 0.918
-0.455358 -0.0813548 0.887
-0.438618 -0.0787799 0.859
-0.54828 -0.114241 1.247
-0.551457 -0.115615 1.262
-0.551949 -0.116439 1.271
-0.312555 -0.133192 1.447
-0.310137 -0.133847 1.454
-0.306416 -0.13395 1.455
-0.29874 -0.132303 1.437
-0.291365 -0.130748 1.42
-0.288942 -0.131403 1.427
-0.290475 -0.1339 1.454
-0.291664 -0.136304 1.48
-0.169409 -0.145461 1.576
-0.165224 -0.145561 1.577
-0.161849 -0.146399 1.586
-0.157729 -0.14659 1.588
-0.152921 -0.146136 1.583
-0.147389 -0.144942 1.57
-0.141472 -0.143287 1.552
-0.136094 -0.142093 1.539
-0.112055 -0.138335 1.498
-0.108836 -0.139448 1.51
-0.105898 -0.141023 1.527
-0.1024 -0.141951 1.537
-0.0986562 -0.142602 1.544
-0.0945675 -0.142791 1.546
-0.0901169 -0.142426 1.542
-0.0850749 -0.141045 1.527
-0.0808032 -0.140864 1.525
-0.0768436 -0.141237 1.529
-0.0734798 -0.142811 1.546
-0.0692613 -0.142814 1.546
-0.0653791 -0.143556 1.554
-0.0599186 -0.140695 1.523
-0.0535652 -0.135155 1.463
-0.0492673 -0.134326 1.454
-0.0297866 -0.135998 1.472
-0.0257505 -0.135907 1.471
-0.0215868 -0.134984 1.461
-0.0176704 -0.13554 1.467
-0.0137304 -0.136187 1.474
-0.00971924 -0.136373 1.476
-0.0056547 -0.135541 1.467
-0.00162242 -0.133324 1.443
0.145417 -0.134496 1.457
0.149589 -0.134675 1.459
0.153561 -0.134668 1.459
0.157533 -0.134661 1.459
0.161172 -0.134377 1.456
0.164794 -0.134093 1.453
0.16805 -0.133532 1.447
0.170798 -0.132602 1.437
0.172883 -0.131211 1.422
0.174637 -0.129635 1.405
0.176807 -0.128428 1.392
0.179683 -0.127775 1.385
0.234846 -0.131169 1.423
0.240215 -0.13199 1.432
0.245803 -0.132902 1.442
0.250925 -0.133538 1.449
0.842845 -0.11292 1.212
0.843083 -0.112507 1.207
0.841898 -0.111907 1.2
-0.571382 -0.078248 0.815
-0.565376 -0.0777312 0.81
-0.558019 -0.0770236 0.803
-0.517682 -0.0779402 0.819
-0.518438 -0.0783928 0.824
-0.519795 -0.0789407 0.83
-0.521746 -0.0795839 0.837
-0.529865 -0.0811777 0.854
-0.542831 -0.0835315 0.879
-0.553813 -0.0855994 0.901
-0.561613 -0.0871919 0.918
-0.556802 -0.0884148 0.932
-0.552356 -0.0881104 0.929
-0.54734 -0.0877119 0.925
-0.542351 -0.087314 0.921
-0.522401 -0.0860913 0.909
-0.520979 -0.086265 0.911
-0.520118 -0.0865337 0.914
-0.517546 -0.0865188 0.914
-0.508215 -0.0853686 0.902
-0.497273 -0.0839353 0.887
-0.489208 -0.082976 0.877
-0.485642 -0.0827741 0.875
-0.476137 -0.083189 0.88
-0.476381 -0.0836511 0.885
-0.485168 -0.0856255 0.906
-0.505561 -0.0896789 0.949
-0.490354 -0.0892536 0.945
-0.480005 -0.0878286 0.93
-0.46204 -0.0849878 0.9
-0.445263 -0.0823366 0.872
-0.413634 -0.0881895 0.935
-0.549709 -0.118654 1.258
-0.551514 -0.119786 1.27
-0.311896 -0.136839 1.444
-0.30842 -0.137039 1.446
-0.304721 -0.137145 1.447
-0.296235 -0.13507 1.425
-0.288072 -0.13309 1.404
-0.285287 -0.133575 1.409
-0.287867 -0.136619 1.441
-0.290471 -0.139758 1.474
-0.169402 -0.149753 1.576
-0.165321 -0.14995 1.578
-0.162148 -0.151003 1.589
-0.157722 -0.150915 1.588
-0.152914 -0.150447 1.583
-0.147664 -0.149504 1.573
-0.142012 -0.148085 1.558
-0.136707 -0.14695 1.546
-0.111826 -0.142131 1.495
-0.108399 -0.142992 1.504
-0.105269 -0.144328 1.518
-0.101796 -0.145283 1.528
-0.0980766 -0.145954 1.535
-0.0941962 -0.146434 1.54
-0.0903465 -0.147008 1.546
-0.0857952 -0.146442 1.54
-0.0817001 -0.146636 1.542
-0.0779959 -0.147591 1.552
-0.0742843 -0.148641 1.563
-0.0700644 -0.148739 1.564
-0.0662595 -0.149789 1.575
-0.0609386 -0.147319 1.549
-0.0535261 -0.139047 1.462
-0.0491972 -0.138099 1.452
-0.0297042 -0.13963 1.468
-0.0255918 -0.139061 1.462
-0.0215858 -0.138967 1.461
-0.0175973 -0.138968 1.461
-0.0136087 -0.138968 1.461
-0.00952124 -0.137542 1.446
-0.00548869 -0.13545 1.424
-0.00158749 -0.134309 1.412
0.144911 -0.137989 1.452
0.14907 -0.138173 1.454
0.152923 -0.138071 1.453
0.15677 -0.137969 1.452
0.160168 -0.137487 1.447
0.163085 -0.136625 1.438
0.165488 -0.135382 1.425
0.167344 -0.13376 1.408
0.16935 -0.132328 1.393
0.171896 -0.13137 1.383
0.175021 -0.130888 1.378
0.178638 -0.130785 1.377
0.233847 -0.134471 1.417
0.238864 -0.135126 1.424
0.2446 -0.13616 1.435
0.249529 -0.136719 1.441
0.831771 -0.114729 1.196
0.831262 -0.114207 1.19
0.828622 -0.113397 1.181
-0.555995 -0.0783263 0.793
-0.552849 -0.0781904 0.792
-0.549716 -0.0780553 0.791
-0.526555 -0.0815516 0.833
-0.532303 -0.0827996 0.846
-0.541738 -0.0846346 0.865
-0.552938 -0.0867624 0.887
-0.563394 -0.0887918 0.908
-0.573115 -0.0907229 0.928
-0.574735 -0.091383 0.935
-0.572649 -0.0914569 0.936
-0.55264 -0.0902727 0.925
-0.547025 -0.0897645 0.92
-0.539667 -0.0889644 0.912
-0.534125 -0.0884578 0.907
-0.520118 -0.0881753 0.905
-0.516991 -0.0880618 0.904
-0.511598 -0.0875591 0.899
-0.503404 -0.0865702 0.889
-0.49527 -0.085582 0.879
-0.490559 -0.0851787 0.875
-0.485316 -0.0846785 0.87
-0.482879 -0.0846655 0.87
-0.476689 -0.0856759 0.881
-0.475315 -0.0858595 0.883
-0.480894 -0.0873073 0.898
-0.497047 -0.0906994 0.933
-0.49659 -0.092983 0.957
-0.486723 -0.091614 0.943
-0.468721 -0.0886914 0.913
-0.451908 -0.0859639 0.885
-0.402575 -0.0882952 0.91
-0.547088 -0.121477 1.252
-0.550211 -0.122933 1.267
-0.311237 -0.140469 1.441
-0.307342 -0.14048 1.441
-0.302604 -0.140101 1.437
-0.293522 -0.137675 1.412
-0.285805 -0.135833 1.393
-0.282847 -0.136233 1.397
-0.28526 -0.139267 1.428
-0.288884 -0.142984 1.466
-0.168964 -0.153653 1.572
-0.164475 -0.153465 1.57
-0.161222 -0.15445 1.58
-0.156721 -0.154262 1.578
-0.152328 -0.154172 1.577
-0.147563 -0.15369 1.572
-0.142552 -0.152914 1.564
-0.137408 -0.151943 1.554
-0.11197 -0.146399 1.497
-0.107961 -0.146502 1.498
-0.103947 -0.146605 1.499
-0.0997262 -0.146414 1.497
-0.0953885 -0.146028 1.493
-0.091684 -0.146619 1.499
-0.0871282 -0.145841 1.491
-0.0818915 -0.143791 1.47
-0.0774578 -0.143012 1.462
-0.0745247 -0.14507 1.483
-0.0733302 -0.150943 1.543
-0.0699266 -0.152708 1.561
-0.0665507 -0.154765 1.582
-0.0619978 -0.154181 1.576
-0.0551709 -0.147434 1.507
-0.0495336 -0.143034 1.462
-0.029804 -0.14412 1.473
-0.0255905 -0.143045 1.462
-0.0214075 -0.141774 1.449
-0.0173194 -0.140699 1.438
-0.0132448 -0.139134 1.422
-0.0092574 -0.137569 1.406
-0.00539977 -0.13708 1.401
-0.00157729 -0.137276 1.403
0.144306 -0.141357 1.446
0.148243 -0.14135 1.446
0.152074 -0.141246 1.445
0.155359 -0.140652 1.439
0.157947 -0.139472 1.427
0.159789 -0.137705 1.409
0.161765 -0.136134 1.393
0.164128 -0.134954 1.381
0.167033 -0.134263 1.374
0.170521 -0.13406 1.372
0.174124 -0.133955 1.371
0.178111 -0.134142 1.373
0.232682 -0.137641 1.41
0.237177 -0.138022 1.414
0.242715 -0.138989 1.424
0.248481 -0.140052 1.435
0.824869 -0.117043 1.186
0.826426 -0.116802 1.183
0.827975 -0.116561 1.18
-0.551125 -0.0798065 0.786
-0.550094 -0.0799715 0.788
-0.547667 -0.0799342 0.788
-0.557555 -0.0887622 0.882
-0.570711 -0.0912509 0.907
-0.577463 -0.0927329 0.922
-0.581639 -0.0938125 0.933
-0.580793 -0.0940879 0.936
-0.576228 -0.0937607 0.933
-0.571071 -0.0933338 0.929
-0.567166 -0.0931086 0.927
-0.547881 -0.0919924 0.917
-0.541693 -0.0913699 0.911
-0.533769 -0.0904473 0.902
-0.529433 -0.0901271 0.899
-0.516686 -0.0900375 0.899
-0.51186 -0.0896204 0.895
-0.503646 -0.0886033 0.885
-0.496624 -0.0877871 0.877
-0.490213 -0.0870717 0.87
-0.488891 -0.0872576 0.872
-0.485887 -0.0871436 0.871
-0.484002 -0.0872302 0.872
-0.477242 -0.0881684 0.882
-0.475864 -0.0883571 0.884
-0.477156 -0.0890457 0.891
-0.488001 -0.0915333 0.916
-0.500232 -0.0962782 0.964
-0.492925 -0.0953702 0.955
-0.477457 -0.0928651 0.93
-0.459575 -0.0898616 0.9
-0.398594 -0.0898613 0.901
-0.544903 -0.124368 1.247
-0.548474 -0.125964 1.263
-0.310794 -0.144183 1.439
-0.306265 -0.143893 1.436
-0.300277 -0.142903 1.426
-0.291224 -0.140408 1.401
-0.284358 -0.138916 1.386
-0.281216 -0.139227 1.389
-0.282852 -0.141944 1.416
-0.286508 -0.145765 1.454
-0.167129 -0.156225 1.555
-0.161535 -0.154927 1.542
-0.156929 -0.154532 1.538
-0.154132 -0.155946 1.552
-0.151355 -0.157461 1.567
-0.147932 -0.158373 1.576
-0.143457 -0.158179 1.574
-0.138108 -0.156979 1.562
-0.112862 -0.151683 1.509
-0.108965 -0.15199 1.512
-0.10415 -0.15099 1.502
-0.098922 -0.149286 1.485
-0.0942339 -0.148285 1.475
-0.090334 -0.148491 1.477
-0.0856631 -0.147389 1.466
-0.0807176 -0.145684 1.449
-0.0765004 -0.145185 1.444
-0.073114 -0.146295 1.455
-0.0718534 -0.15203 1.512
-0.0689377 -0.154748 1.539
-0.0657482 -0.157165 1.563
-0.0614833 -0.157168 1.563
-0.0548021 -0.150534 1.497
-0.0494973 -0.146917 1.461
-0.0292764 -0.145519 1.447
-0.0250641 -0.144012 1.432
-0.0209632 -0.142706 1.419
-0.016897 -0.141098 1.403
-0.012974 -0.140093 1.393
-0.00916477 -0.139993 1.392
-0.0053995 -0.140898 1.401
-0.00158845 -0.142105 1.413
0.143601 -0.144591 1.439
0.147211 -0.144283 1.436
0.150173 -0.143371 1.427
0.152437 -0.141857 1.412
0.154288 -0.140042 1.394
0.156266 -0.138427 1.378
0.159086 -0.137616 1.37
0.162456 -0.137307 1.367
0.166174 -0.1373 1.367
0.170016 -0.137392 1.368
0.174116 -0.137686 1.371
0.178233 -0.137979 1.374
0.232013 -0.141075 1.406
0.236664 -0.141566 1.411
0.242024 -0.142459 1.42
0.247605 -0.143452 1.43
0.821447 -0.11981 1.181
0.82229 -0.11946 1.177
0.826629 -0.119618 1.178
-0.551163 -0.0819785 0.786
-0.550132 -0.082148 0.788
-0.549095 -0.082318 0.79
-0.536175 -0.0833531 0.803
-0.534432 -0.0834248 0.804
-0.53335 -0.0836008 0.806
-0.532921 -0.083881 0.809
-0.533135 -0.0842653 0.813
-0.533984 -0.0847534 0.818
-0.534159 -0.0851383 0.822
-0.536903 -0.0859377 0.83
-0.544757 -0.0875651 0.846
-0.560854 -0.0905372 0.875
-0.578062 -0.0937149 0.906
-0.590013 -0.0960639 0.929
-0.596778 -0.0975852 0.944
-0.597167 -0.0980727 0.949
-0.593149 -0.0978374 0.947
-0.58603 -0.0970864 0.94
-0.525136 -0.0922486 0.896
-0.523758 -0.0924355 0.898
-0.521211 -0.0924171 0.898
-0.517513 -0.0921933 0.896
-0.499781 -0.0967801 0.943
-0.516148 -0.100464 0.979
-0.517109 -0.101171 0.986
-0.511252 -0.100545 0.98
-0.504393 -0.0997141 0.972
-0.49758 -0.098884 0.964
-0.48568 -0.0970286 0.946
-0.466222 -0.0936357 0.913
-0.448979 -0.0906538 0.884
-0.433413 -0.0879804 0.858
-0.428041 -0.0873584 0.852
-0.424701 -0.0871469 0.85
-0.396383 -0.0917885 0.896
-0.409343 -0.0953732 0.931
-0.53966 -0.126515 1.235
-0.547606 -0.129178 1.261
-0.309919 -0.147679 1.435
-0.30476 -0.147073 1.429
-0.297528 -0.145438 1.413
-0.288927 -0.143082 1.39
-0.282911 -0.14196 1.379
-0.279991 -0.142383 1.383
-0.280444 -0.144556 1.404
-0.283935 -0.148377 1.441
-0.286643 -0.151889 1.475
-0.285141 -0.15324 1.488
-0.282057 -0.153766 1.493
-0.278759 -0.154189 1.497
-0.201732 -0.161007 1.561
-0.197236 -0.16081 1.559
-0.193616 -0.161335 1.564
-0.189968 -0.16186 1.569
-0.184517 -0.160837 1.559
-0.177733 -0.158576 1.537
-0.171632 -0.15683 1.52
-0.166394 -0.155807 1.51
-0.161425 -0.154989 1.502
-0.156185 -0.153862 1.491
-0.15386 -0.155623 1.508
-0.152039 -0.158004 1.531
-0.132475 -0.159588 1.546
-0.127434 -0.158562 1.536
-0.122205 -0.157226 1.523
-0.117589 -0.156613 1.517
-0.113081 -0.156102 1.512
-0.109248 -0.156521 1.516
-0.10463 -0.155803 1.509
-0.0992501 -0.153847 1.49
-0.094357 -0.152509 1.477
-0.0902683 -0.152411 1.476
-0.0856004 -0.151279 1.465
-0.0807693 -0.149734 1.45
-0.0764965 -0.149119 1.444
-0.0728089 -0.149639 1.449
-0.0704242 -0.153051 1.482
-0.0674113 -0.155429 1.505
-0.0638941 -0.156879 1.519
-0.0593955 -0.155952 1.51
-0.0536646 -0.151411 1.466
-0.0487833 -0.148728 1.44
-0.0446979 -0.148214 1.435
-0.0409806 -0.148939 1.442
-0.0371222 -0.149251 1.445
-0.0329029 -0.148014 1.433
-0.0285061 -0.145536 1.409
-0.0244503 -0.144298 1.397
-0.0205337 -0.143576 1.39
-0.0167035 -0.143267 1.387
-0.0129268 -0.143371 1.388
-0.0092038 -0.144405 1.398
-0.00544547 -0.145955 1.413
-0.00160523 -0.147504 1.428
0.126585 -0.146987 1.424
0.130738 -0.14729 1.427
0.134814 -0.14749 1.429
0.138705 -0.147483 1.429
0.141997 -0.146857 1.423
0.144641 -0.145612 1.411
0.146693 -0.143851 1.394
0.14876 -0.142192 1.378
0.820807 -0.122966 1.18
0.825142 -0.123128 1.181
0.830196 -0.123395 1.183
-0.552606 -0.0843652 0.788
-0.552266 -0.0846459 0.791
-0.550524 -0.0847132 0.792
-0.538211 -0.0858808 0.806
-0.537788 -0.0861672 0.809
-0.538014 -0.0865605 0.813
-0.538881 -0.0870606 0.818
-0.54038 -0.0876674 0.824
-0.544459 -0.0886998 0.834
-0.550435 -0.090051 0.847
-0.567337 -0.0932088 0.877
-0.585355 -0.0965775 0.909
-0.602549 -0.0998385 0.94
-0.609996 -0.101505 0.956
-0.612273 -0.102323 0.964
-0.607555 -0.101973 0.961
-0.599714 -0.101094 0.953
-0.588167 -0.0995794 0.939
-0.576706 -0.0980665 0.925
-0.522812 -0.0942672 0.892
-0.519694 -0.0941421 0.891
-0.514845 -0.0937007 0.887
-0.508867 -0.0930487 0.881
-0.492372 -0.097865 0.929
-0.509832 -0.101857 0.967
-0.51712 -0.103847 0.986
-0.511784 -0.103309 0.981
-0.504921 -0.102457 0.973
-0.498106 -0.101604 0.965
-0.489283 -0.100332 0.953
-0.472868 -0.0974803 0.926
-0.455589 -0.0944194 0.897
-0.436451 -0.0909384 0.864
-0.427545 -0.0895631 0.851
-0.423708 -0.0892407 0.848
-0.394614 -0.0937937 0.892
-0.399671 -0.0955805 0.909
-0.545869 -0.132171 1.257
-0.308611 -0.150943 1.429
-0.30219 -0.149687 1.417
-0.294148 -0.147585 1.397
-0.286629 -0.145695 1.379
-0.281874 -0.145178 1.374
-0.27836 -0.145295 1.375
-0.278036 -0.147102 1.392
-0.280574 -0.150495 1.424
-0.284882 -0.154946 1.466
-0.284938 -0.157177 1.487
-0.281668 -0.157612 1.491
-0.278003 -0.157835 1.493
-0.201077 -0.164725 1.556
-0.196467 -0.164417 1.553
-0.192369 -0.164532 1.554
-0.187901 -0.164329 1.552
-0.179183 -0.160315 1.514
-0.17148 -0.157041 1.483
-0.16643 -0.156096 1.474
-0.161978 -0.15568 1.47
-0.158085 -0.155794 1.471
-0.155129 -0.156861 1.481
-0.153343 -0.159199 1.503
-0.151237 -0.161325 1.523
-0.132383 -0.163691 1.545
-0.127676 -0.163062 1.539
-0.122359 -0.161585 1.525
-0.117661 -0.160849 1.518
-0.113225 -0.160431 1.514
-0.109314 -0.160755 1.517
-0.104902 -0.160336 1.513
-0.100111 -0.159282 1.503
-0.095502 -0.158439 1.495
-0.0913033 -0.158232 1.493
-0.0865308 -0.156965 1.481
-0.081712 -0.155485 1.467
-0.0772342 -0.154536 1.458
-0.0732071 -0.154433 1.457
-0.0692802 -0.154543 1.458
-0.0651236 -0.154123 1.454
-0.0610727 -0.153914 1.452
-0.0566784 -0.152751 1.441
-0.0520878 -0.150846 1.423
-0.0480016 -0.150212 1.417
-0.0441661 -0.150321 1.418
-0.0403817 -0.150641 1.421
-0.0363239 -0.149901 1.414
-0.0321435 -0.148419 1.4
-0.0281 -0.147254 1.389
-0.024239 -0.146832 1.385
-0.0204883 -0.147045 1.387
-0.0167989 -0.147894 1.395
-0.0130937 -0.149061 1.406
-0.00934156 -0.15044 1.419
-0.00551841 -0.151818 1.432
-0.00162089 -0.152879 1.442
0.126223 -0.15044 1.42
0.130091 -0.150433 1.42
0.133581 -0.150003 1.416
0.136757 -0.149255 1.409
0.139196 -0.147765 1.395
0.141251 -0.145957 1.378
0.143529 -0.144467 1.364
0.146378 -0.143613 1.356
0.820865 -0.126225 1.18
0.822407 -0.125963 1.177
0.827449 -0.126237 1.179
-0.554751 -0.0868732 0.791
-0.553005 -0.0869414 0.792
-0.551259 -0.0870103 0.793
-0.54292 -0.0888626 0.813
-0.544469 -0.0894838 0.819
-0.54665 -0.0902144 0.826
-0.55209 -0.0914911 0.838
-0.618231 -0.104628 0.96
-0.616685 -0.104811 0.962
-0.613857 -0.104778 0.962
-0.612305 -0.104963 0.964
-0.60569 -0.104277 0.958
-0.59408 -0.102722 0.944
-0.579426 -0.100625 0.925
-0.569876 -0.0994 0.914
-0.515212 -0.0952886 0.879
-0.510964 -0.0949438 0.876
-0.504996 -0.0942745 0.87
-0.503109 -0.0943644 0.871
-0.484963 -0.0988742 0.915
-0.505099 -0.103509 0.958
-0.518704 -0.106847 0.989
-0.515968 -0.106836 0.989
-0.509602 -0.106069 0.982
-0.499664 -0.104546 0.968
-0.492373 -0.103565 0.959
-0.479005 -0.101288 0.938
-0.462708 -0.0983637 0.911
-0.442521 -0.0945769 0.876
-0.429059 -0.0921944 0.854
-0.424215 -0.0916477 0.849
-0.393288 -0.0958852 0.889
-0.395714 -0.0970708 0.9
-0.54283 -0.134819 1.25
-0.306656 -0.153848 1.42
-0.298766 -0.151801 1.401
-0.290978 -0.149754 1.382
-0.285163 -0.148682 1.372
-0.281247 -0.148585 1.371
-0.277944 -0.148813 1.373
-0.276027 -0.1498 1.382
-0.27741 -0.152629 1.408
-0.281761 -0.157194 1.45
-0.283776 -0.160567 1.481
-0.280711 -0.161121 1.486
-0.27706 -0.161349 1.488
-0.200679 -0.168632 1.553
-0.195699 -0.16799 1.547
-0.19075 -0.167348 1.541
-0.184744 -0.165728 1.526
-0.176926 -0.162371 1.495
-0.170315 -0.15999 1.473
-0.165292 -0.159021 1.464
-0.160648 -0.158377 1.458
-0.15754 -0.159254 1.466
-0.155122 -0.160891 1.481
-0.153131 -0.163072 1.501
-0.150435 -0.164601 1.515
-0.132119 -0.167571 1.542
-0.127504 -0.167034 1.537
-0.122032 -0.165302 1.521
-0.116492 -0.163352 1.503
-0.111873 -0.162597 1.496
-0.107795 -0.162603 1.496
-0.103718 -0.162608 1.496
-0.0993731 -0.162179 1.492
-0.095497 -0.16251 1.495
-0.0915431 -0.162732 1.497
-0.0870521 -0.161976 1.49
-0.0822647 -0.160567 1.477
-0.0775479 -0.159158 1.464
-0.072952 -0.157858 1.452
-0.0684212 -0.156557 1.44
-0.0640005 -0.155364 1.429
-0.0601021 -0.155368 1.429
-0.0560461 -0.154936 1.425
-0.0516458 -0.153417 1.411
-0.0474571 -0.152332 1.401
-0.0434785 -0.151791 1.396
-0.0395839 -0.151467 1.393
-0.0356798 -0.151034 1.389
-0.0317974 -0.150601 1.385
-0.0279974 -0.150494 1.384
-0.0243077 -0.151039 1.389
-0.0206645 -0.152127 1.399
-0.0170389 -0.153868 1.415
-0.0132886 -0.155174 1.427
-0.00945955 -0.156262 1.437
-0.00557206 -0.157241 1.446
-0.00162867 -0.157568 1.449
0.12515 -0.153001 1.408
0.128252 -0.152125 1.4
0.130933 -0.150815 1.388
0.133353 -0.149287 1.374
0.135897 -0.147976 1.362
0.138784 -0.1471 1.354
0.141943 -0.14655 1.349
0.145507 -0.146434 1.348
0.816751 -0.128825 1.174
0.818973 -0.128666 1.172
0.822598 -0.128728 1.172
-0.554794 -0.0890606 0.791
-0.553046 -0.0891304 0.792
-0.5513 -0.0892009 0.793
-0.554976 -0.0931159 0.831
-0.569103 -0.09588 0.856
-0.655518 -0.112292 1.004
-0.653189 -0.112364 1.005
-0.647627 -0.111879 1.001
-0.636299 -0.110389 0.988
-0.626336 -0.109124 0.977
-0.617082 -0.107972 0.967
-0.610433 -0.107268 0.961
-0.595606 -0.105115 0.942
-0.577119 -0.102294 0.917
-0.567554 -0.101037 0.906
-0.564293 -0.100897 0.905
-0.507612 -0.0962395 0.866
-0.505151 -0.0962195 0.866
-0.503274 -0.0963112 0.867
-0.501395 -0.0964033 0.868
-0.480735 -0.100472 0.907
-0.496147 -0.104227 0.941
-0.515045 -0.108756 0.982
-0.516501 -0.10963 0.99
-0.509094 -0.108623 0.981
-0.498125 -0.10684 0.965
-0.491869 -0.106056 0.958
-0.482078 -0.104496 0.944
-0.468304 -0.102052 0.922
-0.450106 -0.0986126 0.891
-0.432081 -0.0951741 0.86
-0.425721 -0.0942816 0.852
-0.391961 -0.0979605 0.886
-0.393516 -0.0989547 0.895
-0.404637 -0.102381 0.926
-0.302973 -0.155815 1.403
-0.295129 -0.153717 1.384
-0.288861 -0.152396 1.372
-0.284112 -0.151852 1.367
-0.280826 -0.152086 1.369
-0.277528 -0.152319 1.371
-0.274817 -0.152887 1.376
-0.27464 -0.154898 1.394
-0.278057 -0.159021 1.431
-0.281657 -0.163367 1.47
-0.279944 -0.164713 1.482
-0.276676 -0.16517 1.486
-0.200153 -0.172411 1.549
-0.194804 -0.171419 1.54
-0.189255 -0.170204 1.529
-0.183161 -0.168433 1.513
-0.176917 -0.166438 1.495
-0.170769 -0.164443 1.477
-0.165961 -0.163672 1.47
-0.161411 -0.163123 1.465
-0.158285 -0.164022 1.473
-0.155533 -0.165367 1.485
-0.152817 -0.166822 1.498
-0.149732 -0.167944 1.508
-0.132112 -0.171768 1.542
-0.127414 -0.171106 1.536
-0.122026 -0.169442 1.521
-0.116409 -0.167332 1.502
-0.111044 -0.165444 1.485
-0.106277 -0.164335 1.475
-0.10184 -0.163672 1.469
-0.0976362 -0.163344 1.466
-0.0936396 -0.163349 1.466
-0.0898261 -0.163688 1.469
-0.085879 -0.163804 1.47
-0.0816477 -0.163363 1.466
-0.077173 -0.162364 1.457
-0.0724457 -0.160697 1.442
-0.0677524 -0.158918 1.426
-0.0632804 -0.157472 1.413
-0.0590895 -0.156584 1.405
-0.0549026 -0.155584 1.396
-0.0506914 -0.154361 1.385
-0.0467771 -0.153918 1.381
-0.043009 -0.15392 1.381
-0.039184 -0.1537 1.379
-0.035421 -0.153702 1.379
-0.0317498 -0.15415 1.383
-0.0281779 -0.155266 1.393
-0.0246214 -0.156828 1.407
-0.0209588 -0.158167 1.419
-0.0172426 -0.159617 1.432
-0.0134275 -0.160732 1.442
-0.00953144 -0.161402 1.448
-0.00559102 -0.161736 1.451
-0.00162858 -0.161514 1.449
0.123188 -0.154383 1.386
0.125772 -0.152928 1.373
0.12819 -0.151362 1.359
0.131017 -0.150353 1.35
0.134194 -0.14979 1.345
0.137752 -0.149671 1.344
0.141515 -0.149775 1.345
0.145391 -0.149991 1.347
0.81055 -0.131056 1.165
0.810649 -0.130555 1.16
0.815642 -0.130844 1.162
-0.556942 -0.0915945 0.794
-0.553788 -0.0914352 0.793
-0.552733 -0.0916225 0.795
-0.550288 -0.0915801 0.795
-0.551296 -0.0921142 0.8
-0.55228 -0.0926486 0.805
-0.553923 -0.0932984 0.811
-0.554177 -0.0937183 0.815
-0.55712 -0.0945985 0.823
-0.566087 -0.0965127 0.84
-0.679327 -0.118228 1.031
-0.677565 -0.118414 1.033
-0.67384 -0.118257 1.032
-0.668828 -0.117872 1.029
-0.662547 -0.117259 1.024
-0.651794 -0.115845 1.012
-0.641117 -0.114434 1
-0.627965 -0.112567 0.984
-0.614913 -0.110701 0.968
-0.591212 -0.106894 0.935
-0.570227 -0.103547 0.906
-0.563198 -0.102717 0.899
-0.561204 -0.102801 0.9
-0.560451 -0.103115 0.903
-0.557214 -0.102972 0.902
-0.551528 -0.102374 0.897
-0.545264 -0.101662 0.891
-0.475976 -0.101913 0.898
-0.487195 -0.104852 0.924
-0.508762 -0.11006 0.97
-0.515991 -0.112204 0.989
-0.474916 -0.106027 0.935
-0.455166 -0.102163 0.901
-0.437113 -0.09864 0.87
-0.427726 -0.0970452 0.856
-0.392405 -0.100473 0.887
-0.393078 -0.101265 0.894
-0.398083 -0.103189 0.911
-0.542466 -0.14238 1.257
-0.545496 -0.144079 1.272
-0.544611 -0.144759 1.278
-0.542424 -0.145099 1.281
-0.322884 -0.161963 1.424
-0.319038 -0.161976 1.424
-0.313863 -0.161306 1.418
-0.306752 -0.159612 1.403
-0.274937 -0.161087 1.415
-0.278962 -0.165766 1.456
-0.279554 -0.168511 1.48
-0.27685 -0.169321 1.487
-0.19885 -0.175484 1.539
-0.193276 -0.174239 1.528
-0.188008 -0.173223 1.519
-0.182668 -0.172092 1.509
-0.158814 -0.1686 1.478
-0.15521 -0.169065 1.482
-0.151687 -0.169643 1.487
-0.148632 -0.170792 1.497
-0.145619 -0.172055 1.508
-0.14217 -0.172861 1.515
-0.138591 -0.173553 1.521
-0.134803 -0.174017 1.525
-0.130906 -0.174367 1.528
-0.126495 -0.174031 1.525
-0.121458 -0.172783 1.514
-0.116247 -0.171191 1.5
-0.110964 -0.169371 1.484
-0.105911 -0.167779 1.47
-0.101072 -0.166415 1.458
-0.0964987 -0.165394 1.449
-0.0921654 -0.164714 1.443
-0.0879868 -0.164262 1.439
-0.0841802 -0.164495 1.441
-0.0801395 -0.164272 1.439
-0.0756858 -0.163134 1.429
-0.0708341 -0.160969 1.41
-0.0661808 -0.159032 1.393
-0.0619335 -0.157894 1.383
0.0951831 -0.161968 1.419
0.0988415 -0.161621 1.416
0.102411 -0.161159 1.412
0.106033 -0.16081 1.409
0.109482 -0.160234 1.404
0.112662 -0.159315 1.396
0.115297 -0.157711 1.382
0.117942 -0.156221 1.369
0.807133 -0.133699 1.16
0.809315 -0.133532 1.158
0.812898 -0.133596 1.158
-0.55839 -0.0940275 0.796
-0.555927 -0.0939822 0.796
-0.555557 -0.0942917 0.799
-0.555868 -0.0947198 0.803
-0.558919 -0.0956199 0.811
-0.562613 -0.0966378 0.82
-0.570358 -0.0983625 0.835
-0.692645 -0.121906 1.037
-0.692855 -0.122446 1.042
-0.691057 -0.122634 1.044
-0.691232 -0.123175 1.049
-0.688104 -0.12313 1.049
-0.682372 -0.122616 1.045
-0.67537 -0.121869 1.039
-0.672293 -0.121827 1.039
-0.662138 -0.120497 1.028
-0.653337 -0.119402 1.019
-0.642043 -0.117841 1.006
-0.628925 -0.11593 0.99
-0.600098 -0.111094 0.949
-0.574035 -0.10673 0.912
-0.563229 -0.105178 0.899
-0.55874 -0.104796 0.896
-0.556756 -0.104883 0.897
-0.553536 -0.104737 0.896
-0.547867 -0.104124 0.891
-0.540395 -0.103162 0.883
-0.471748 -0.103422 0.89
-0.479825 -0.105734 0.91
-0.500907 -0.11095 0.955
-0.513916 -0.114423 0.985
-0.477972 -0.10926 0.941
-0.459721 -0.105651 0.91
-0.442647 -0.102276 0.881
-0.429233 -0.0997146 0.859
-0.392406 -0.102874 0.887
-0.392199 -0.103453 0.892
-0.394151 -0.104612 0.902
-0.538151 -0.144623 1.247
-0.543352 -0.146943 1.267
-0.544184 -0.148103 1.277
-0.542423 -0.148567 1.281
-0.321738 -0.165245 1.419
-0.316561 -0.164559 1.413
-0.309866 -0.163058 1.4
-0.30193 -0.160857 1.381
-0.27201 -0.163181 1.4
-0.275118 -0.167389 1.436
-0.278408 -0.171831 1.474
-0.276651 -0.173243 1.486
-0.197677 -0.178618 1.53
-0.192128 -0.177344 1.519
-0.186885 -0.176303 1.51
-0.181932 -0.175495 1.503
-0.15902 -0.172854 1.48
-0.154679 -0.172512 1.477
-0.150659 -0.17252 1.477
-0.147036 -0.172996 1.481
-0.14368 -0.173821 1.488
-0.140004 -0.174296 1.492
-0.136124 -0.174537 1.494
-0.132232 -0.174778 1.496
-0.1285 -0.175253 1.5
-0.124497 -0.175377 1.501
-0.119927 -0.174682 1.495
-0.115234 -0.173754 1.487
-0.110135 -0.172124 1.473
-0.104968 -0.170261 1.457
-0.100166 -0.168864 1.445
-0.0956943 -0.167935 1.437
-0.0912662 -0.167005 1.429
-0.0868814 -0.166075 1.421
-0.0826567 -0.165379 1.415
-0.0784087 -0.164565 1.408
-0.0739338 -0.163167 1.396
-0.069524 -0.161768 1.384
-0.065322 -0.16072 1.375
-0.0613927 -0.160256 1.371
0.0948425 -0.165246 1.414
0.0984173 -0.164773 1.41
0.101897 -0.164183 1.405
0.105124 -0.163243 1.397
0.108073 -0.161951 1.386
0.110719 -0.160309 1.372
0.113122 -0.158434 1.356
0.115782 -0.157025 1.344
0.807197 -0.136905 1.16
0.807981 -0.136498 1.156
0.81156 -0.136564 1.156
-0.56896 -0.0980437 0.811
-0.566449 -0.0979963 0.811
-0.566728 -0.098433 0.815
-0.569066 -0.0992322 0.822
-0.587221 -0.102807 0.852
-0.700056 -0.124551 1.034
-0.707036 -0.126305 1.049
-0.705211 -0.126495 1.051
-0.704049 -0.126805 1.054
-0.698888 -0.126395 1.051
-0.699048 -0.126947 1.056
-0.699845 -0.127621 1.062
-0.700614 -0.128295 1.068
-0.694824 -0.127768 1.064
-0.687114 -0.126883 1.057
-0.680101 -0.126119 1.051
-0.67313 -0.125356 1.045
-0.662995 -0.123996 1.034
-0.653569 -0.122756 1.024
-0.642939 -0.121279 1.012
-0.626693 -0.118726 0.991
-0.599245 -0.114019 0.952
-0.578924 -0.110632 0.924
-0.560018 -0.107488 0.898
-0.550579 -0.106141 0.887
-0.544298 -0.105393 0.881
-0.537441 -0.104527 0.874
-0.530018 -0.103543 0.866
-0.46964 -0.105363 0.886
-0.47351 -0.106778 0.898
-0.491478 -0.111403 0.937
-0.510798 -0.116384 0.979
-0.481538 -0.112644 0.948
-0.464782 -0.109308 0.92
-0.449187 -0.10621 0.894
-0.432239 -0.102757 0.865
-0.392407 -0.105276 0.887
-0.391321 -0.105631 0.89
-0.391967 -0.106461 0.897
-0.399958 -0.109309 0.921
-0.541636 -0.149898 1.263
-0.543331 -0.151322 1.275
-0.542422 -0.152035 1.281
-0.319004 -0.167666 1.407
-0.312291 -0.166129 1.394
-0.305206 -0.164354 1.379
-0.299075 -0.163056 1.368
-0.270055 -0.16579 1.39
-0.270316 -0.168307 1.411
-0.274807 -0.173568 1.455
-0.27459 -0.175966 1.475
-0.196634 -0.181822 1.522
-0.191106 -0.180518 1.511
-0.185761 -0.179333 1.501
-0.181196 -0.178865 1.497
-0.158152 -0.175923 1.472
-0.153309 -0.174976 1.464
-0.148611 -0.174147 1.457
-0.144447 -0.173916 1.455
-0.140389 -0.173805 1.454
-0.136337 -0.173693 1.453
-0.132016 -0.173222 1.449
-0.128071 -0.173229 1.449
-0.124124 -0.173236 1.449
-0.12026 -0.173363 1.45
-0.11607 -0.173011 1.447
-0.111663 -0.1723 1.441
-0.107138 -0.171349 1.433
-0.102585 -0.170279 1.424
-0.0982884 -0.169567 1.418
-0.0942905 -0.169334 1.416
-0.0902392 -0.16898 1.413
-0.0863262 -0.168866 1.412
-0.0821847 -0.168273 1.407
-0.0782372 -0.168038 1.405
-0.0737178 -0.166488 1.392
-0.0693191 -0.165056 1.38
-0.0650332 -0.163745 1.369
-0.0611652 -0.163389 1.366
0.0941664 -0.167898 1.404
0.0975044 -0.167055 1.397
0.100514 -0.165734 1.386
0.103162 -0.163935 1.371
0.10565 -0.162016 1.355
0.108292 -0.160455 1.342
0.111281 -0.159493 1.334
0.114483 -0.158889 1.329
0.805174 -0.13975 1.157
0.808048 -0.139696 1.156
0.808117 -0.139159 1.151
-0.593565 -0.104617 0.846
-0.71161 -0.127937 1.037
-0.714594 -0.12899 1.046
-0.71549 -0.129674 1.052
-0.715681 -0.130235 1.057
-0.714503 -0.130551 1.06
-0.71063 -0.130374 1.059
-0.70744 -0.130322 1.059
-0.702262 -0.129902 1.056
-0.701745 -0.130344 1.06
-0.70187 -0.13091 1.065
-0.703285 -0.131721 1.072
-0.700094 -0.131674 1.072
-0.69431 -0.131136 1.068
-0.687263 -0.130354 1.062
-0.682191 -0.129942 1.059
-0.675219 -0.129162 1.053
-0.667652 -0.128262 1.046
-0.654414 -0.12626 1.03
-0.643173 -0.124627 1.017
-0.62509 -0.121649 0.993
-0.605273 -0.118306 0.966
-0.575641 -0.113006 0.923
-0.546885 -0.107833 0.881
-0.533206 -0.105601 0.863
-0.524556 -0.104348 0.853
-0.520865 -0.104076 0.851
-0.469123 -0.107648 0.885
-0.471413 -0.10873 0.894
-0.482049 -0.111758 0.919
-0.503505 -0.117339 0.965
-0.485103 -0.116067 0.955
-0.473885 -0.113991 0.938
-0.45623 -0.110336 0.908
-0.437244 -0.106318 0.875
-0.392409 -0.107678 0.887
-0.391322 -0.108041 0.89
-0.391094 -0.108647 0.895
-0.394314 -0.110224 0.908
-0.539063 -0.152589 1.257
-0.542052 -0.15441 1.272
-0.542421 -0.155503 1.281
-0.31491 -0.169289 1.389
-0.30735 -0.16723 1.372
-0.301652 -0.166146 1.363
-0.297095 -0.165671 1.359
-0.268294 -0.168466 1.381
-0.266664 -0.16982 1.392
-0.269506 -0.174103 1.427
-0.272344 -0.178508 1.463
-0.196106 -0.185471 1.518
-0.190843 -0.184382 1.509
-0.185256 -0.182925 1.497
-0.18046 -0.182202 1.491
-0.15535 -0.176748 1.446
-0.150473 -0.175657 1.437
-0.145849 -0.174809 1.43
-0.141659 -0.174451 1.427
-0.137582 -0.174214 1.425
-0.133327 -0.173733 1.421
-0.129094 -0.173251 1.417
-0.125058 -0.173014 1.415
-0.121291 -0.173143 1.416
-0.117517 -0.173272 1.417
-0.113577 -0.173156 1.416
-0.109254 -0.172429 1.41
-0.105263 -0.172191 1.408
-0.101283 -0.171952 1.406
-0.0977283 -0.172447 1.41
-0.0942185 -0.173064 1.415
-0.0906172 -0.173559 1.419
-0.0867492 -0.173564 1.419
-0.082764 -0.173324 1.417
-0.0789008 -0.173329 1.417
-0.074296 -0.171621 1.403
-0.0696667 -0.169668 1.387
-0.0652669 -0.168081 1.374
-0.0614303 -0.167841 1.372
0.0932221 -0.170005 1.39
0.0959634 -0.168165 1.375
0.0983325 -0.165836 1.356
0.100823 -0.163873 1.34
0.103695 -0.162645 1.33
0.106834 -0.161905 1.324
0.110273 -0.161654 1.322
0.11396 -0.16177 1.323
0.801065 -0.142208 1.151
0.802523 -0.141905 1.148
0.802569 -0.141356 1.143
-0.727917 -0.131675 1.042
-0.729567 -0.132497 1.049
-0.652066 -0.129168 1.031
-0.635829 -0.126498 1.01
-0.619094 -0.123706 0.988
-0.590019 -0.118412 0.946
-0.555607 -0.111996 0.895
-0.533236 -0.107962 0.863
-0.523355 -0.106431 0.851
-0.520281 -0.106278 0.85
-0.471786 -0.110673 0.89
-0.470898 -0.111033 0.893
-0.47734 -0.113134 0.91
-0.493083 -0.117473 0.945
-0.507595 -0.121562 0.978
-0.50799 -0.122295 0.984
-0.500138 -0.121041 0.974
-0.494897 -0.120408 0.969
-0.490193 -0.1199 0.965
-0.482483 -0.118647 0.955
-0.463274 -0.114538 0.922
-0.444248 -0.11043 0.889
-0.414254 -0.108257 0.872
-0.417541 -0.109742 0.884
-0.423112 -0.111847 0.901
-0.419722 -0.111595 0.899
-0.405664 -0.116653 0.94
-0.534775 -0.154751 1.247
-0.540348 -0.157357 1.268
-0.541997 -0.158846 1.28
-0.421845 -0.173569 1.396
-0.414793 -0.172213 1.385
-0.406316 -0.170235 1.369
-0.399396 -0.168879 1.358
-0.396614 -0.169264 1.361
-0.396414 -0.170769 1.373
-0.395292 -0.171901 1.382
-0.393553 -0.172784 1.389
-0.390093 -0.172921 1.39
-0.387183 -0.173307 1.393
-0.383981 -0.173568 1.395
-0.380223 -0.173581 1.395
-0.36298 -0.174393 1.401
-0.359459 -0.174531 1.402
-0.356186 -0.174793 1.404
-0.352902 -0.175055 1.406
-0.267505 -0.171716 1.377
-0.265119 -0.172602 1.384
-0.265716 -0.175483 1.407
-0.269911 -0.180859 1.45
-0.175213 -0.185016 1.481
-0.169684 -0.183401 1.468
-0.163885 -0.181412 1.452
-0.158834 -0.180171 1.442
-0.15373 -0.178806 1.431
-0.149313 -0.17819 1.426
-0.144719 -0.177323 1.419
-0.140857 -0.177331 1.419
-0.137188 -0.177589 1.421
-0.133601 -0.177972 1.424
-0.129724 -0.177979 1.424
-0.126023 -0.178237 1.426
-0.122226 -0.178369 1.427
-0.118256 -0.178251 1.426
-0.114051 -0.177758 1.422
-0.109635 -0.176889 1.415
-0.0749799 -0.177063 1.416
-0.0700141 -0.174317 1.394
-0.0654055 -0.172195 1.377
-0.0614267 -0.171573 1.372
-0.057685 -0.171577 1.372
-0.0540218 -0.17183 1.374
-0.0502377 -0.171709 1.373
-0.0465604 -0.171962 1.375
-0.0429966 -0.172715 1.381
-0.0395703 -0.174218 1.393
-0.0358987 -0.174846 1.398
-0.0321996 -0.175473 1.403
-0.0285135 -0.17635 1.41
-0.0247542 -0.176977 1.415
-0.0209674 -0.177604 1.42
-0.0171534 -0.178231 1.425
0.0638515 -0.17645 1.411
0.0675073 -0.175946 1.407
0.071141 -0.175441 1.403
0.0749129 -0.175312 1.402
0.0785667 -0.174932 1.399
0.0820861 -0.174302 1.394
0.0853932 -0.173297 1.386
0.0884632 -0.171916 1.375
0.0910706 -0.169786 1.358
0.0935152 -0.16753 1.34
0.0962239 -0.165899 1.327
0.0993128 -0.165018 1.32
0.796261 -0.144508 1.144
0.800495 -0.144703 1.145
0.798426 -0.143763 1.137
-0.74735 -0.137597 1.065
-0.744748 -0.137659 1.066
-0.742846 -0.137851 1.068
-0.655902 -0.132762 1.037
-0.640904 -0.13029 1.018
-0.631664 -0.128971 1.008
-0.611261 -0.125351 0.98
-0.576126 -0.118666 0.928
-0.540681 -0.111857 0.875
-0.525844 -0.10927 0.855
-0.520921 -0.10873 0.851
-0.471799 -0.113091 0.89
-0.470911 -0.113459 0.893
-0.472632 -0.114462 0.901
-0.483703 -0.117752 0.927
-0.50138 -0.122693 0.966
-0.510067 -0.125474 0.988
-0.504771 -0.124827 0.983
-0.498483 -0.123926 0.976
-0.494776 -0.123661 0.974
-0.489062 -0.122889 0.968
-0.472328 -0.119324 0.94
-0.450253 -0.114364 0.901
-0.413784 -0.110493 0.871
-0.415657 -0.11163 0.88
-0.420299 -0.113528 0.895
-0.421127 -0.114411 0.902
-0.39617 -0.116408 0.918
-0.538643 -0.160282 1.264
-0.540727 -0.161931 1.277
-0.422438 -0.177604 1.398
-0.414781 -0.175965 1.385
-0.404524 -0.173181 1.363
-0.395855 -0.171033 1.346
-0.391065 -0.170537 1.342
-0.388896 -0.171185 1.347
-0.388987 -0.172849 1.36
-0.388724 -0.174387 1.372
-0.387274 -0.175416 1.38
-0.384669 -0.175937 1.384
-0.382317 -0.176586 1.389
-0.379392 -0.17698 1.392
-0.362189 -0.177809 1.398
-0.358933 -0.178077 1.4
-0.355919 -0.178472 1.403
-0.352637 -0.17874 1.405
-0.267104 -0.175199 1.375
-0.264723 -0.176104 1.382
-0.264004 -0.178155 1.398
-0.267664 -0.183266 1.438
-0.176623 -0.190573 1.493
-0.170252 -0.18803 1.473
-0.163312 -0.18472 1.447
-0.158165 -0.183325 1.436
-0.153829 -0.182824 1.432
-0.149933 -0.182832 1.432
-0.145934 -0.182713 1.431
-0.142338 -0.183105 1.434
-0.139207 -0.184134 1.442
-0.135845 -0.184908 1.448
-0.132267 -0.185427 1.452
-0.128844 -0.186201 1.458
-0.125388 -0.186975 1.464
-0.121566 -0.187238 1.466
-0.117092 -0.186478 1.46
-0.112108 -0.184825 1.447
-0.0748695 -0.180659 1.414
-0.0700601 -0.178236 1.395
-0.0655916 -0.176452 1.381
-0.0616915 -0.176072 1.378
-0.0579338 -0.176076 1.378
-0.0542544 -0.176335 1.38
-0.0505639 -0.176594 1.382
-0.0470655 -0.177619 1.39
-0.0438657 -0.18005 1.409
-0.0406473 -0.182864 1.431
-0.0365897 -0.182099 1.425
-0.0326336 -0.181718 1.422
-0.0287949 -0.181975 1.424
-0.0249626 -0.18236 1.427
-0.0211138 -0.182745 1.43
-0.0172245 -0.182874 1.431
0.0635761 -0.179521 1.405
0.0672153 -0.179006 1.401
0.0707817 -0.178363 1.396
0.0743741 -0.177848 1.392
0.0777758 -0.176949 1.385
0.0809036 -0.175539 1.374
0.0837246 -0.173617 1.359
0.0863349 -0.17144 1.342
0.0890534 -0.169647 1.328
0.0919744 -0.168364 1.318
0.0952756 -0.167847 1.314
0.0987803 -0.167714 1.313
0.791458 -0.14677 1.137
0.796371 -0.147098 1.139
0.796391 -0.146524 1.134
-0.750927 -0.141207 1.07
-0.74761 -0.141138 1.07
-0.744999 -0.141202 1.071
-0.657841 -0.135998 1.04
-0.645352 -0.133995 1.025
-0.637343 -0.132909 1.017
-0.627516 -0.131432 1.006
-0.601616 -0.126562 0.969
-0.551836 -0.116602 0.893
-0.53141 -0.112784 0.864
-0.522787 -0.111449 0.854
-0.472343 -0.115639 0.891
-0.471452 -0.116014 0.894
-0.471071 -0.11652 0.898
-0.476411 -0.118453 0.913
-0.495165 -0.123759 0.954
-0.510596 -0.128286 0.989
-0.509918 -0.128792 0.993
-0.504113 -0.128002 0.987
-0.496819 -0.126823 0.978
-0.490588 -0.125904 0.971
-0.477865 -0.1233 0.951
-0.457259 -0.118623 0.915
-0.412839 -0.112595 0.869
-0.413772 -0.113496 0.876
-0.417487 -0.115175 0.889
-0.421598 -0.116984 0.903
-0.391855 -0.117598 0.908
-0.535234 -0.162668 1.256
-0.539033 -0.16487 1.273
-0.422426 -0.181391 1.398
-0.416267 -0.180365 1.39
-0.405996 -0.177522 1.368
-0.395549 -0.17455 1.345
-0.387848 -0.172745 1.331
-0.383687 -0.172497 1.329
-0.381252 -0.173029 1.333
-0.381062 -0.174599 1.345
-0.380526 -0.17604 1.356
-0.379653 -0.177351 1.366
-0.379001 -0.178792 1.377
-0.377199 -0.179714 1.384
-0.361658 -0.181339 1.396
-0.358407 -0.181612 1.398
-0.354637 -0.181626 1.398
-0.350867 -0.18164 1.398
-0.266897 -0.178801 1.374
-0.264327 -0.179594 1.38
-0.262669 -0.181039 1.391
-0.264487 -0.184956 1.421
-0.178743 -0.196977 1.511
-0.173247 -0.195423 1.499
-0.167365 -0.193347 1.483
-0.162341 -0.192183 1.474
-0.158116 -0.191931 1.472
-0.154321 -0.192201 1.474
-0.150107 -0.191949 1.472
-0.146895 -0.193001 1.48
-0.143736 -0.194184 1.489
-0.139964 -0.194583 1.492
-0.135447 -0.193939 1.487
-0.131752 -0.194469 1.491
-0.12735 -0.193955 1.487
-0.1233 -0.193963 1.487
-0.117967 -0.191883 1.471
-0.113031 -0.190325 1.459
-0.0746532 -0.183983 1.41
-0.0701563 -0.182291 1.397
-0.06592 -0.181121 1.388
-0.0620459 -0.180864 1.386
-0.0583506 -0.181129 1.388
-0.0547228 -0.181654 1.392
-0.0511827 -0.182571 1.399
-0.047909 -0.184662 1.415
-0.0449525 -0.18845 1.444
-0.0418945 -0.192498 1.475
-0.0376915 -0.191587 1.468
-0.0336183 -0.191198 1.465
-0.0295008 -0.190417 1.459
-0.0253458 -0.189113 1.449
-0.0213635 -0.188854 1.447
-0.0173558 -0.188202 1.442
0.063165 -0.182168 1.396
0.0668274 -0.181773 1.393
0.0702197 -0.180725 1.385
0.0734078 -0.179285 1.374
0.0761988 -0.177062 1.357
0.0788379 -0.174709 1.339
0.0815634 -0.172747 1.324
0.0845285 -0.171437 1.314
0.0877069 -0.170649 1.308
0.0911315 -0.170382 1.306
0.0948348 -0.170638 1.308
0.0985487 -0.170893 1.31
0.788744 -0.149389 1.133
0.791548 -0.149329 1.132
0.790845 -0.14861 1.126
-0.755209 -0.144981 1.076
-0.751173 -0.144775 1.075
-0.749241 -0.144975 1.077
-0.661047 -0.139517 1.045
-0.65106 -0.138006 1.034
-0.646784 -0.137697 1.032
-0.633793 -0.135522 1.016
-0.574735 -0.123979 0.93
-0.536977 -0.116348 0.873
-0.524042 -0.114051 0.856
-0.471297 -0.117794 0.889
-0.470939 -0.11831 0.893
-0.469511 -0.118561 0.895
-0.472249 -0.119873 0.905
-0.484797 -0.1237 0.934
-0.506479 -0.129912 0.981
-0.513012 -0.132282 0.999
-0.508211 -0.13174 0.995
-0.500895 -0.130536 0.986
-0.494136 -0.129465 0.978
-0.484408 -0.127601 0.964
-0.465264 -0.123223 0.931
-0.411895 -0.114685 0.867
-0.412361 -0.115473 0.873
-0.414674 -0.116791 0.883
-0.420202 -0.119034 0.9
-0.390129 -0.119528 0.904
-0.403977 -0.124551 0.942
-0.530973 -0.164746 1.246
-0.537762 -0.167919 1.27
-0.422715 -0.185309 1.399
-0.417752 -0.184792 1.395
-0.408654 -0.18242 1.377
-0.397007 -0.178855 1.35
-0.387544 -0.176218 1.33
-0.381076 -0.174905 1.32
-0.376949 -0.174652 1.318
-0.374816 -0.175327 1.323
-0.373498 -0.1764 1.331
-0.372414 -0.177605 1.34
-0.371557 -0.178944 1.35
-0.3701 -0.180017 1.358
-0.355686 -0.182072 1.373
-0.351984 -0.182086 1.373
-0.347521 -0.181702 1.37
-0.344077 -0.181848 1.371
-0.267078 -0.182662 1.375
-0.264123 -0.183207 1.379
-0.26209 -0.184415 1.388
-0.262799 -0.187617 1.412
-0.178614 -0.20095 1.51
-0.174971 -0.201492 1.514
-0.169838 -0.200305 1.505
-0.165084 -0.199516 1.499
-0.160577 -0.198993 1.495
-0.155987 -0.198337 1.49
-0.151933 -0.198346 1.49
-0.149367 -0.200352 1.505
-0.147009 -0.202757 1.523
-0.143239 -0.203299 1.527
-0.137989 -0.201709 1.515
-0.132805 -0.20012 1.503
-0.126657 -0.196932 1.479
-0.120723 -0.193877 1.456
-0.115635 -0.19202 1.442
-0.111707 -0.192027 1.442
-0.0746485 -0.187817 1.41
-0.0705536 -0.187156 1.405
-0.0665807 -0.18676 1.402
-0.062803 -0.186898 1.403
-0.0590616 -0.187168 1.405
-0.0554269 -0.187838 1.41
-0.0520575 -0.189573 1.423
-0.049091 -0.193173 1.45
-0.0456968 -0.195574 1.468
-0.0420055 -0.197042 1.479
-0.0378688 -0.196512 1.475
-0.0340063 -0.197447 1.482
-0.0298628 -0.196783 1.477
-0.0257115 -0.195852 1.47
-0.021554 -0.194521 1.46
-0.017451 -0.19319 1.45
0.0627538 -0.184766 1.387
0.0661036 -0.183563 1.378
0.0690493 -0.181427 1.362
0.0716403 -0.178625 1.341
0.0742288 -0.17609 1.322
0.0770668 -0.174354 1.309
0.0802648 -0.17355 1.303
0.0836227 -0.173145 1.3
0.0872322 -0.173273 1.301
0.0909166 -0.173534 1.303
0.0947565 -0.174061 1.307
0.0985427 -0.174454 1.31
0.785335 -0.151852 1.128
0.787426 -0.151656 1.126
0.789515 -0.151461 1.124
-0.755282 -0.147963 1.076
-0.752642 -0.148028 1.077
-0.751398 -0.148369 1.08
-0.66552 -0.143337 1.052
-0.65803 -0.142339 1.045
-0.65184 -0.141615 1.04
-0.639448 -0.13953 1.025
-0.623423 -0.136632 1.004
-0.588367 -0.129518 0.952
-0.54316 -0.120097 0.883
-0.526522 -0.116937 0.86
-0.4791 -0.12475 0.923
-0.500297 -0.130953 0.969
-0.511998 -0.134724 0.997
-0.5118 -0.135386 1.002
-0.503955 -0.134022 0.992
-0.496168 -0.132659 0.982
-0.486931 -0.130892 0.969
-0.471771 -0.127504 0.944
-0.449793 -0.122227 0.905
-0.432479 -0.118166 0.875
-0.42467 -0.116672 0.864
-0.420345 -0.116124 0.86
-0.389699 -0.12184 0.903
-0.395829 -0.124538 0.923
-0.536492 -0.170953 1.267
-0.388115 -0.18009 1.332
-0.380775 -0.178345 1.319
-0.375793 -0.177681 1.314
-0.372538 -0.177829 1.315
-0.335152 -0.182735 1.35
-0.334211 -0.184238 1.361
-0.333211 -0.185741 1.372
-0.330229 -0.186161 1.375
-0.327706 -0.186851 1.38
-0.326329 -0.188219 1.39
-0.323272 -0.18864 1.393
-0.314924 -0.185945 1.373
-0.267065 -0.186393 1.375
-0.263727 -0.186677 1.377
-0.261888 -0.188046 1.387
-0.261669 -0.190635 1.406
-0.250393 -0.196804 1.451
-0.248329 -0.198309 1.462
-0.246707 -0.200222 1.476
-0.243856 -0.201184 1.483
-0.239997 -0.201333 1.484
-0.236609 -0.201889 1.488
-0.232729 -0.202037 1.489
-0.228997 -0.202321 1.491
-0.224801 -0.202198 1.49
-0.22135 -0.202754 1.494
-0.218459 -0.203852 1.502
-0.214239 -0.203728 1.501
-0.210723 -0.204283 1.505
-0.206774 -0.204431 1.506
-0.203088 -0.20485 1.509
-0.198725 -0.20459 1.507
-0.126307 -0.200408 1.475
-0.120052 -0.196748 1.448
-0.115146 -0.195124 1.436
-0.111933 -0.196354 1.445
-0.108221 -0.196769 1.448
-0.1037 -0.195688 1.44
-0.0983223 -0.192841 1.419
-0.0934577 -0.190808 1.404
-0.0894405 -0.190406 1.401
-0.0855004 -0.19014 1.399
-0.0819797 -0.190825 1.404
-0.0784871 -0.191646 1.41
-0.0748555 -0.192194 1.414
-0.0709509 -0.192063 1.413
-0.0670988 -0.192067 1.413
-0.0632466 -0.192072 1.413
-0.0595202 -0.192483 1.416
-0.056013 -0.19371 1.425
-0.0530419 -0.197112 1.45
-0.0500019 -0.200786 1.477
-0.0298205 -0.200527 1.475
-0.0256224 -0.199169 1.465
-0.0215379 -0.198355 1.459
-0.0173536 -0.196045 1.442
-0.0131783 -0.192511 1.416
-0.00923023 -0.190745 1.403
-0.00540314 -0.190745 1.403
-0.00157715 -0.190881 1.404
0.0328899 -0.190872 1.404
0.0366668 -0.190598 1.402
0.0403749 -0.190052 1.398
0.0440611 -0.189505 1.394
0.0477595 -0.189095 1.391
0.0514415 -0.188684 1.388
0.0550273 -0.188 1.383
0.0585006 -0.187045 1.376
0.061664 -0.185274 1.363
0.0645165 -0.182824 1.345
0.0671692 -0.180101 1.325
0.0699797 -0.178058 1.31
0.780534 -0.154014 1.121
0.781905 -0.153677 1.118
0.783971 -0.153477 1.116
-0.755356 -0.150947 1.076
-0.754812 -0.151433 1.08
-0.753557 -0.151781 1.083
-0.668096 -0.146779 1.056
-0.663742 -0.146455 1.054
-0.655644 -0.145299 1.046
-0.645104 -0.143589 1.034
-0.630294 -0.140909 1.015
-0.605092 -0.135873 0.979
-0.559804 -0.126261 0.91
-0.529003 -0.119846 0.864
-0.473404 -0.12574 0.912
-0.491533 -0.131241 0.952
-0.507903 -0.136328 0.989
-0.512834 -0.138382 1.004
-0.506 -0.137266 0.996
-0.499212 -0.136151 0.988
-0.489958 -0.134348 0.975
-0.478279 -0.131857 0.957
-0.459246 -0.1273 0.924
-0.438913 -0.122331 0.888
-0.425661 -0.119291 0.866
-0.420353 -0.118456 0.86
-0.388836 -0.12401 0.901
-0.39197 -0.125798 0.914
-0.533104 -0.173282 1.259
-0.390433 -0.184801 1.34
-0.381917 -0.182469 1.323
-0.376353 -0.181516 1.316
-0.371958 -0.181115 1.313
-0.331911 -0.184599 1.337
-0.330514 -0.185855 1.346
-0.329797 -0.187526 1.358
-0.328774 -0.189059 1.369
-0.326504 -0.189902 1.375
-0.323967 -0.190606 1.38
-0.318849 -0.189792 1.374
-0.311699 -0.187734 1.359
-0.267246 -0.190261 1.376
-0.263714 -0.190413 1.377
-0.261686 -0.191671 1.386
-0.261283 -0.194174 1.404
-0.248654 -0.199359 1.441
-0.244579 -0.199234 1.44
-0.241178 -0.199662 1.443
-0.238253 -0.200505 1.449
-0.236426 -0.202317 1.462
-0.234847 -0.204406 1.477
-0.232404 -0.205803 1.487
-0.22837 -0.205816 1.487
-0.224637 -0.206105 1.489
-0.220597 -0.206118 1.489
-0.217864 -0.207376 1.498
-0.213513 -0.207112 1.496
-0.210011 -0.207678 1.5
-0.206076 -0.207828 1.501
-0.201461 -0.207286 1.497
-0.197527 -0.207436 1.498
-0.128011 -0.207189 1.495
-0.121288 -0.202761 1.463
-0.116262 -0.200967 1.45
-0.1127 -0.201667 1.455
-0.10941 -0.202922 1.464
-0.104918 -0.201958 1.457
-0.0992861 -0.198638 1.433
-0.0937845 -0.195318 1.409
-0.0893071 -0.193937 1.399
-0.0856172 -0.19422 1.401
-0.0822664 -0.195335 1.409
-0.0788717 -0.196449 1.417
-0.0752742 -0.197147 1.422
-0.0713982 -0.197152 1.422
-0.0675694 -0.197295 1.423
-0.0636901 -0.197299 1.423
-0.0600627 -0.198135 1.429
-0.0569134 -0.200773 1.448
-0.0539529 -0.204521 1.475
-0.0502694 -0.205911 1.485
-0.0297579 -0.204121 1.472
-0.0256557 -0.20343 1.467
-0.0215217 -0.202183 1.458
-0.0170757 -0.196776 1.419
-0.0129261 -0.192617 1.389
-0.00910463 -0.191924 1.384
-0.00534502 -0.19248 1.388
-0.00156356 -0.193034 1.392
0.0327004 -0.19358 1.396
0.0364291 -0.193162 1.393
0.0401124 -0.192604 1.389
0.0438054 -0.192186 1.386
0.0474818 -0.191767 1.383
0.0510676 -0.19107 1.378
0.0542678 -0.189126 1.364
0.0572214 -0.186626 1.346
0.0598958 -0.183572 1.324
0.0627377 -0.18135 1.308
0.0657963 -0.179959 1.298
0.0690672 -0.179262 1.293
0.777127 -0.156419 1.116
0.778484 -0.156074 1.113
0.780535 -0.155871 1.111
-0.755432 -0.153931 1.076
-0.754886 -0.154427 1.08
-0.755022 -0.155067 1.085
-0.675103 -0.151235 1.067
-0.670715 -0.150905 1.065
-0.664465 -0.15015 1.06
-0.655754 -0.14883 1.051
-0.641513 -0.146239 1.033
-0.621201 -0.142234 1.005
-0.57891 -0.133139 0.941
-0.538833 -0.124474 0.88
-0.468227 -0.126811 0.902
-0.480704 -0.130874 0.931
-0.502268 -0.137467 0.978
-0.513869 -0.141388 1.006
-0.508045 -0.140532 1
-0.500235 -0.139114 0.99
-0.491477 -0.137415 0.978
-0.483787 -0.135999 0.968
-0.467208 -0.132054 0.94
-0.446336 -0.126847 0.903
-0.429111 -0.122623 0.873
-0.421827 -0.12121 0.863
-0.387974 -0.126169 0.899
-0.389397 -0.127431 0.908
-0.39887 -0.13136 0.936
-0.393334 -0.189836 1.35
-0.383637 -0.186896 1.329
-0.377198 -0.185502 1.319
-0.371946 -0.184671 1.313
-0.331401 -0.187941 1.335
-0.328536 -0.188377 1.338
-0.326869 -0.189517 1.346
-0.324918 -0.190516 1.353
-0.321979 -0.190953 1.356
-0.318553 -0.191108 1.357
-0.313962 -0.190558 1.353
-0.309162 -0.189868 1.348
-0.267815 -0.194417 1.379
-0.264083 -0.19443 1.379
-0.26205 -0.195713 1.388
-0.262014 -0.198547 1.408
-0.249331 -0.203833 1.445
-0.244566 -0.203141 1.44
-0.239326 -0.202026 1.432
-0.234787 -0.201475 1.428
-0.231077 -0.201629 1.429
-0.228474 -0.202771 1.437
-0.226296 -0.204336 1.448
-0.224211 -0.206042 1.46
-0.222211 -0.207889 1.473
-0.219399 -0.209031 1.481
-0.216543 -0.210173 1.489
-0.212359 -0.210044 1.488
-0.208179 -0.209915 1.487
-0.20373 -0.209504 1.484
-0.199027 -0.20881 1.479
-0.195406 -0.209245 1.482
-0.129801 -0.214218 1.516
-0.123933 -0.211258 1.495
-0.118098 -0.208157 1.473
-0.113158 -0.206469 1.461
-0.108133 -0.204497 1.447
-0.103039 -0.202243 1.431
-0.097617 -0.19914 1.409
-0.0945772 -0.200843 1.421
-0.0908972 -0.201273 1.424
-0.0877504 -0.202975 1.436
-0.0842461 -0.20397 1.443
-0.0807032 -0.204965 1.45
-0.0764867 -0.204263 1.445
-0.0721968 -0.203278 1.438
-0.0681347 -0.202859 1.435
-0.0642677 -0.203005 1.436
-0.0609834 -0.205129 1.451
-0.0578136 -0.207961 1.471
-0.054498 -0.21065 1.49
-0.0504015 -0.210513 1.489
-0.0298368 -0.208688 1.476
-0.0255316 -0.206427 1.46
-0.021048 -0.201622 1.426
-0.0165331 -0.194271 1.374
-0.0127113 -0.193141 1.366
-0.00899878 -0.193424 1.368
-0.00529846 -0.194556 1.376
-0.00155223 -0.195404 1.382
0.0324405 -0.195819 1.385
0.0361652 -0.195534 1.383
0.0397921 -0.194825 1.378
0.0433916 -0.194115 1.373
0.0467921 -0.192698 1.363
0.0499154 -0.190433 1.347
0.0527525 -0.187461 1.326
0.0556023 -0.184913 1.308
0.05858 -0.183071 1.295
0.0617264 -0.181936 1.287
0.0650823 -0.181508 1.284
0.0686354 -0.181645 1.285
0.774417 -0.158939 1.112
0.775064 -0.158445 1.108
