-0.342898 0.526279 1.449
-0.339679 0.527372 1.452
-0.335981 0.527738 1.453
-0.332736 0.528832 1.456
-0.329474 0.529926 1.459
-0.326419 0.531383 1.463
-0.323122 0.532477 1.466
-0.319592 0.533209 1.468
-0.315836 0.533577 1.469
-0.312074 0.533946 1.47
-0.308726 0.535042 1.473
-0.304741 0.535048 1.473
-0.301165 0.53578 1.475
-0.297578 0.536513 1.477
-0.294179 0.53761 1.48
-0.290568 0.538343 1.482
-0.286945 0.539077 1.484
-0.283312 0.53981 1.486
-0.279668 0.540544 1.488
-0.275828 0.540915 1.489
-0.2718 0.540923 1.489
-0.267772 0.540931 1.489
-0.263567 0.540575 1.488
-0.259367 0.54022 1.487
-0.255344 0.540228 1.487
-0.251321 0.540236 1.487
-0.247132 0.539881 1.486
-0.242948 0.539526 1.485
-0.238769 0.539171 1.484
-0.23507 0.539907 1.486
-0.230739 0.539188 1.484
-0.226418 0.53847 1.482
-0.221957 0.537389 1.479
-0.21766 0.53667 1.477
-0.213663 0.536679 1.477
-0.209383 0.53596 1.475
-0.205252 0.535606 1.474
-0.200989 0.534887 1.472
-0.196872 0.534532 1.471
-0.192628 0.533814 1.469
-0.188395 0.533095 1.467
-0.18455 0.533467 1.468
-0.18033 0.532748 1.466
-0.176122 0.532029 1.464
-0.171806 0.530947 1.461
-0.167391 0.529501 1.457
-0.163334 0.529146 1.456
-0.159174 0.528426 1.454
-0.155557 0.529524 1.457
-0.150884 0.526987 1.45
-0.146451 0.525178 1.445
-0.142045 0.523367 1.44
-0.138626 0.525192 1.445
-0.134433 0.524108 1.442
-0.129895 0.521571 1.435
-0.125043 0.517579 1.424
-0.120761 0.515768 1.419
-0.116506 0.513957 1.414
-0.112118 0.511419 1.407
-0.107923 0.509607 1.402
-0.103754 0.507795 1.397
-0.0996838 0.506347 1.393
-0.0954975 0.504171 1.387
-0.0914097 0.502359 1.382
-0.0872855 0.500182 1.376
-0.0831936 0.498006 1.37
-0.0791342 0.49583 1.364
-0.0752731 0.494743 1.361
-0.0713756 0.493293 1.357
-0.0676493 0.492934 1.356
-0.0637868 0.491483 1.352
-0.0599904 0.490396 1.349
-0.0560432 0.487855 1.342
-0.0522509 0.486404 1.338
-0.0484803 0.484953 1.334
-0.0447649 0.483865 1.331
-0.0410657 0.482777 1.328
-0.0373545 0.481325 1.324
-0.0337414 0.480963 1.323
-0.0302021 0.481692 1.325
0.022479 0.65729 1.808
0.0274388 0.658742 1.812
0.0324382 0.660558 1.817
0.0374029 0.661283 1.819
0.0423551 0.661645 1.82
0.0473126 0.662006 1.821
0.0523329 0.663093 1.824
0.0573067 0.663454 1.825
0.062388 0.664904 1.829
0.0674174 0.665628 1.831
0.072497 0.666714 1.834
0.0775505 0.667437 1.836
0.0826598 0.668523 1.839
0.0878328 0.669972 1.843
0.0929267 0.670694 1.845
0.0980313 0.671416 1.847
0.103258 0.672864 1.851
0.10839 0.673586 1.853
0.113593 0.67467 1.856
0.118685 0.675027 1.857
0.123915 0.676111 1.86
0.129577 0.679376 1.869
0.135432 0.683367 1.88
0.141571 0.688448 1.894
0.201115 0.737437 2.029
0.207526 0.740698 2.038
0.214089 0.744323 2.048
0.220385 0.746856 2.055
0.226828 0.749753 2.063
0.233202 0.752286 2.07
0.239728 0.755182 2.078
0.24618 0.757715 2.085
0.252791 0.760611 2.093
0.259568 0.76387 2.102
0.266141 0.766402 2.109
0.272751 0.768934 2.116
0.279268 0.771103 2.122
0.28622 0.774361 2.131
0.293358 0.777982 2.141
0.29999 0.78015 2.147
0.306798 0.782682 2.154
0.313498 0.78485 2.16
0.320525 0.787744 2.168
0.327897 0.791365 2.178
0.335017 0.794259 2.186
0.342024 0.79679 2.193
0.349227 0.799684 2.201
0.356795 0.803305 2.211
0.364418 0.806926 2.221
0.371762 0.80982 2.229
0.378978 0.812351 2.236
0.385889 0.814155 2.241
0.393351 0.817049 2.249
0.401388 0.821033 2.26
0.409125 0.824291 2.269
0.416361 0.826458 2.275
0.423816 0.82899 2.282
0.432061 0.832974 2.293
0.440367 0.836959 2.304
0.448344 0.840217 2.313
0.45637 0.843475 2.322
0.464046 0.846007 2.329
0.472365 0.849629 2.339
0.480534 0.852888 2.348
0.524293 0.872819 2.403
0.532119 0.87499 2.409
0.540425 0.877888 2.417
0.549228 0.881513 2.427
0.59789 0.905456 2.493
0.60779 0.910173 2.506
0.616779 0.913439 2.515
0.625073 0.915615 2.521
0.634654 0.919608 2.532
0.644294 0.923602 2.543
0.653739 0.927233 2.553
0.662462 0.929776 2.56
0.671746 0.933045 2.569
0.680816 0.935953 2.577
0.690463 0.939587 2.587
0.699896 0.94286 2.596
0.709378 0.946133 2.605
0.719185 0.94977 2.615
0.728213 0.952319 2.622
0.737561 0.955232 2.63
0.746953 0.958146 2.638
0.756675 0.961425 2.647
0.76587 0.963978 2.654
0.774812 0.96617 2.66
0.783789 0.968362 2.666
0.792799 0.970556 2.672
0.801243 0.972024 2.676
0.808805 0.972404 2.677
0.815763 0.972059 2.676
0.82241 0.971352 2.674
0.830599 0.972462 2.677
0.839431 0.974301 2.682
0.847345 0.975051 2.684
0.853998 0.974349 2.682
0.859679 0.972559 2.677
0.865981 0.971497 2.674
0.871616 0.96971 2.669
0.878214 0.969014 2.667
0.88447 0.967957 2.664
0.890712 0.966901 2.661
0.896603 0.965483 2.657
0.902813 0.96443 2.654
0.908324 0.962652 2.649
0.914156 0.961239 2.645
0.919271 0.9591 2.639
0.92541 0.958054 2.636
0.930826 0.956282 2.631
0.935862 0.954149 2.625
0.938712 0.949836 2.613
0.944032 0.94807 2.608
0.950058 0.947032 2.605
0.956805 0.946723 2.604
0.961328 0.944234 2.597
0.96768 0.943566 2.595
0.978157 0.946899 2.604
0.992091 0.953508 2.622
1.00003 0.954301 2.624
1.00568 0.952914 2.62
1.01131 0.951529 2.616
1.01575 0.949055 2.609
1.02016 0.946582 2.602
1.02414 0.943748 2.594
1.02848 0.94128 2.587
1.03158 0.937722 2.577
1.03504 0.934529 2.568
1.03845 0.931339 2.559
1.04181 0.92815 2.55
1.04513 0.924964 2.541
1.00561 0.65943 1.793
1.01141 0.66001 1.794
1.01666 0.660225 1.794
1.0242 0.661917 1.798
2.15285 1.35862 3.684
2.15615 1.35432 3.671
2.1588 1.34967 3.657
2.1774 1.35499 3.67
2.18955 1.35626 3.672
2.19874 1.35569 3.669
2.20492 1.35328 3.661
2.21229 1.35162 3.655
2.22086 1.35071 3.651
2.22577 1.34758 3.641
2.23003 1.34409 3.63
2.2361 1.34173 3.622
2.27562 1.33557 3.597
2.28415 1.33474 3.593
2.2863 1.3302 3.579
2.2916 1.32753 3.57
2.29623 1.32449 3.56
2.30342 1.32295 3.554
2.31322 1.32291 3.552
2.31583 1.31879 3.539
2.3775 1.30408 3.481
2.38532 1.30305 3.476
2.3959 1.30352 3.475
2.41275 1.30739 3.483
2.42135 1.30677 3.479
2.41737 1.29939 3.457
2.42102 1.29616 3.446
2.43805 1.30009 3.454
-0.538225 0.461161 1.276
-0.535544 0.461835 1.278
-0.532854 0.46251 1.28
-0.530982 0.46391 1.284
-0.528269 0.464587 1.286
-0.525954 0.465627 1.289
-0.523626 0.466668 1.292
-0.520075 0.466627 1.292
-0.517726 0.46767 1.295
-0.514568 0.467992 1.296
-0.512589 0.469399 1.3
-0.509807 0.470084 1.302
-0.507405 0.471131 1.305
-0.504216 0.471458 1.306
-0.50179 0.472507 1.309
-0.499349 0.473557 1.312
-0.495759 0.473525 1.312
-0.492171 0.473495 1.312
-0.489702 0.474548 1.315
-0.487218 0.475602 1.318
-0.48472 0.476657 1.321
-0.482206 0.477713 1.324
-0.479316 0.478409 1.326
-0.477133 0.479827 1.33
-0.474218 0.480525 1.332
-0.472 0.481945 1.336
-0.469762 0.483366 1.34
-0.467155 0.484427 1.343
-0.463843 0.484767 1.344
-0.460868 0.485469 1.346
-0.457884 0.486172 1.348
-0.455901 0.487957 1.353
-0.452555 0.488301 1.354
-0.449868 0.489366 1.357
-0.447165 0.490433 1.36
-0.444121 0.491139 1.362
-0.441067 0.491846 1.364
-0.438644 0.493275 1.368
-0.435564 0.493984 1.37
-0.43279 0.495054 1.373
-0.429063 0.495043 1.373
-0.426265 0.496114 1.376
-0.423452 0.497186 1.379
-0.421233 0.498979 1.384
-0.418082 0.499692 1.386
-0.415219 0.500765 1.389
-0.412342 0.50184 1.392
-0.409448 0.502915 1.395
-0.405957 0.503269 1.396
-0.403326 0.504706 1.4
-0.400102 0.505422 1.402
-0.397434 0.50686 1.406
-0.393625 0.506856 1.406
-0.390648 0.507934 1.409
-0.388204 0.509734 1.414
-0.386005 0.511895 1.42
-0.383236 0.513335 1.424
-0.379114 0.512973 1.423
-0.376052 0.514054 1.426
-0.372713 0.514775 1.428
-0.369881 0.516217 1.432
-0.36626 0.516578 1.433
-0.363646 0.518381 1.438
-0.360254 0.519104 1.44
-0.356605 0.519466 1.441
-0.353195 0.520189 1.443
-0.350258 0.521634 1.447
-0.34754 0.523439 1.452
-0.344084 0.524164 1.454
-0.341086 0.525609 1.458
-0.337835 0.526695 1.461
-0.334797 0.528141 1.465
-0.331285 0.528867 1.467
-0.328209 0.530314 1.471
-0.324891 0.531401 1.474
-0.321121 0.531767 1.475
-0.317561 0.532494 1.477
-0.31399 0.533221 1.479
-0.310409 0.533948 1.481
-0.306403 0.533955 1.481
-0.303009 0.535043 1.484
-0.299801 0.536492 1.488
-0.296174 0.537221 1.49
-0.292339 0.537589 1.491
-0.288693 0.538317 1.493
-0.285036 0.539046 1.495
-0.281368 0.539775 1.497
-0.277689 0.540504 1.499
-0.273999 0.541234 1.501
-0.269579 0.540521 1.499
-0.265169 0.539808 1.497
-0.260771 0.539095 1.495
-0.256555 0.538743 1.494
-0.252682 0.539112 1.495
-0.248471 0.53876 1.494
-0.244265 0.538409 1.493
-0.239904 0.537696 1.491
-0.23587 0.537705 1.491
-0.23168 0.537353 1.49
-0.227343 0.536641 1.488
-0.222866 0.535568 1.485
-0.218553 0.534855 1.483
-0.21454 0.534864 1.483
-0.210243 0.534151 1.481
-0.205956 0.533439 1.479
-0.201681 0.532726 1.477
-0.197549 0.532374 1.476
-0.193292 0.531661 1.474
-0.189046 0.530949 1.472
-0.185061 0.530957 1.472
-0.180585 0.529523 1.468
-0.17637 0.528809 1.466
-0.171931 0.527375 1.462
-0.167859 0.527022 1.461
-0.163679 0.526309 1.459
-0.15951 0.525595 1.457
-0.155351 0.524881 1.455
-0.150683 0.522364 1.448
-0.146053 0.519846 1.441
-0.141263 0.516606 1.432
-0.137098 0.515531 1.429
-0.132855 0.514095 1.425
-0.128544 0.512298 1.42
-0.124259 0.510501 1.415
-0.120086 0.509064 1.411
-0.115935 0.507628 1.407
-0.111806 0.506191 1.403
-0.107698 0.504753 1.399
-0.103611 0.503316 1.395
-0.0996177 0.502239 1.392
-0.0954339 0.50008 1.386
-0.0912825 0.49792 1.38
-0.0872269 0.496121 1.375
-0.0831983 0.494322 1.37
-0.0792547 0.492883 1.366
-0.0754433 0.492166 1.364
-0.0715374 0.490727 1.36
-0.0678029 0.49037 1.359
-0.0638849 0.48857 1.354
-0.0601273 0.487851 1.352
-0.0562135 0.48569 1.346
-0.0524102 0.48425 1.342
-0.0486648 0.48317 1.339
-0.044902 0.481729 1.335
-0.0411918 0.480649 1.332
-0.0374413 0.478848 1.327
-0.0337944 0.478128 1.325
-0.0302267 0.478491 1.326
0.0223684 0.649181 1.799
0.0273193 0.650984 1.804
0.032333 0.653508 1.811
0.0373022 0.654589 1.814
0.0422645 0.655308 1.816
0.0472115 0.655666 1.817
0.0522499 0.657107 1.821
0.0572472 0.657825 1.823
0.0622552 0.658543 1.825
0.0673108 0.659622 1.828
0.0724221 0.661061 1.832
0.0774705 0.661779 1.834
0.0824847 0.662135 1.835
0.0875519 0.662852 1.837
0.0927809 0.664651 1.842
0.0979307 0.665727 1.845
0.103152 0.667165 1.849
0.108279 0.667881 1.851
0.113416 0.668596 1.853
0.118627 0.669672 1.856
0.123855 0.670748 1.859
0.129238 0.672545 1.864
0.134647 0.674341 1.869
0.140233 0.676859 1.876
0.201324 0.732699 2.031
0.20774 0.735936 2.04
0.214204 0.739172 2.049
0.22061 0.742047 2.057
0.226949 0.744561 2.064
0.233438 0.747436 2.072
0.239855 0.749949 2.079
0.246192 0.752102 2.085
0.252802 0.754976 2.093
0.259456 0.75785 2.101
0.266153 0.760724 2.109
0.272635 0.762876 2.115
0.279544 0.76611 2.124
0.286501 0.769343 2.133
0.293781 0.773298 2.144
0.300422 0.77545 2.15
0.30738 0.778322 2.158
0.3138 0.779752 2.162
0.320686 0.782264 2.169
0.32791 0.785497 2.178
0.335336 0.78909 2.188
0.34266 0.792323 2.197
0.349715 0.794834 2.204
0.357131 0.798067 2.213
0.364267 0.800578 2.22
0.372108 0.804532 2.231
0.37933 0.807044 2.238
0.38659 0.809555 2.245
0.393538 0.811345 2.25
0.401223 0.814578 2.259
0.408957 0.81781 2.268
0.41619 0.819961 2.274
0.423828 0.822834 2.282
0.432262 0.827148 2.294
0.44057 0.831102 2.305
0.448743 0.834696 2.315
0.45697 0.83829 2.325
0.464854 0.841163 2.333
0.473184 0.844757 2.343
0.481159 0.847631 2.351
0.524738 0.867049 2.405
0.53257 0.869203 2.411
0.540881 0.872078 2.419
0.549461 0.875315 2.428
0.597176 0.897632 2.49
0.607067 0.902314 2.503
0.616047 0.905554 2.512
0.62458 0.908074 2.519
0.634155 0.912036 2.53
0.644296 0.91672 2.543
0.65374 0.920323 2.553
0.662203 0.922485 2.559
0.671746 0.92609 2.569
0.680814 0.928974 2.577
0.690461 0.93258 2.587
0.700162 0.936188 2.597
0.709918 0.939796 2.607
0.719729 0.943405 2.617
0.728762 0.945934 2.624
0.738114 0.948824 2.632
0.747227 0.951355 2.639
0.756951 0.954607 2.648
0.766148 0.95714 2.655
0.775092 0.959314 2.661
0.784069 0.961488 2.667
0.793674 0.964386 2.675
0.802126 0.965842 2.679
0.810299 0.966939 2.682
0.816964 0.966234 2.68
0.822698 0.96445 2.675
0.830578 0.96519 2.677
0.839409 0.967013 2.682
0.847638 0.968117 2.685
0.854292 0.967419 2.683
0.860616 0.966362 2.68
0.866601 0.964946 2.676
0.872893 0.963892 2.673
0.878841 0.962479 2.669
0.885766 0.962149 2.668
0.891348 0.960378 2.663
0.897579 0.95933 2.66
0.903457 0.957923 2.656
0.908971 0.956157 2.651
0.914116 0.954032 2.645
0.919926 0.952629 2.641
0.925717 0.951228 2.637
0.931488 0.949829 2.633
0.935458 0.946628 2.624
0.939381 0.943429 2.615
0.944705 0.941674 2.61
0.951464 0.941364 2.609
0.957485 0.940334 2.606
0.962752 0.938585 2.601
0.968368 0.937198 2.597
0.978847 0.940505 2.606
0.991271 0.945618 2.62
0.999583 0.946765 2.623
1.00599 0.946108 2.621
1.0124 0.945454 2.619
1.01685 0.942997 2.612
1.02205 0.941264 2.607
1.02525 0.937727 2.597
1.0288 0.934554 2.588
1.0311 0.930298 2.576
1.03495 0.92749 2.568
1.03836 0.924321 2.559
1.04213 0.921516 2.551
1.04504 0.917991 2.541
1.00652 0.65511 1.795
1.0112 0.654953 1.794
1.01588 0.6548 1.793
1.02341 0.656477 1.797
2.15411 1.34928 3.687
2.15388 1.34282 3.668
2.16242 1.34186 3.664
2.17392 1.34273 3.665
2.18902 1.34582 3.672
2.1982 1.34525 3.669
2.20738 1.34469 3.666
2.21778 1.34488 3.665
2.22455 1.34287 3.658
2.22764 1.33866 3.645
2.23252 1.33556 3.635
2.24353 1.33615 3.635
2.27307 1.32413 3.594
2.28032 1.32257 3.588
2.28947 1.32212 3.585
2.29221 1.31798 3.572
2.302 1.31792 3.57
2.30791 1.31565 3.562
2.31837 1.31598 3.561
2.32427 1.31373 3.553
2.38077 1.29615 3.487
2.38722 1.29437 3.48
2.39367 1.2926 3.473
2.41189 1.29718 3.483
2.40794 1.28985 3.461
2.40879 1.28513 3.446
2.41661 1.28415 3.441
2.43572 1.28917 3.452
-0.539442 0.458732 1.279
-0.537173 0.459761 1.282
-0.534889 0.46079 1.285
-0.532591 0.461821 1.288
-0.530689 0.463211 1.292
-0.527544 0.463527 1.293
-0.5248 0.464202 1.295
-0.521242 0.464162 1.295
-0.518886 0.465198 1.298
-0.515324 0.46516 1.298
-0.513341 0.466557 1.302
-0.511338 0.467954 1.306
-0.509314 0.469353 1.31
-0.505726 0.469319 1.31
-0.502524 0.469644 1.311
-0.499317 0.469971 1.312
-0.496484 0.470657 1.314
-0.493267 0.470986 1.315
-0.490791 0.472031 1.318
-0.489039 0.473795 1.323
-0.486894 0.4752 1.327
-0.484365 0.476249 1.33
-0.481821 0.477298 1.333
-0.479262 0.478348 1.336
-0.476687 0.4794 1.339
-0.474098 0.480451 1.342
-0.471493 0.481504 1.345
-0.468526 0.4822 1.347
-0.464859 0.48218 1.347
-0.462219 0.483235 1.35
-0.459225 0.483934 1.352
-0.456895 0.485348 1.356
-0.45421 0.486406 1.359
-0.45151 0.487464 1.362
-0.448137 0.487807 1.363
-0.445085 0.488509 1.365
-0.442347 0.489569 1.368
-0.440235 0.491346 1.373
-0.437142 0.49205 1.375
-0.434355 0.493113 1.378
-0.43124 0.493818 1.38
-0.428734 0.495239 1.384
-0.4259 0.496304 1.387
-0.42305 0.497369 1.39
-0.420185 0.498435 1.393
-0.417305 0.499501 1.396
-0.414112 0.50021 1.398
-0.41091 0.50092 1.4
-0.407987 0.501988 1.403
-0.405049 0.503056 1.406
-0.402096 0.504125 1.409
-0.399126 0.505195 1.412
-0.396141 0.506265 1.415
-0.39314 0.507336 1.418
-0.390673 0.509123 1.423
-0.388178 0.510911 1.428
-0.385119 0.511983 1.431
-0.381511 0.51234 1.432
-0.378162 0.513055 1.434
-0.374802 0.513771 1.436
-0.372206 0.515561 1.441
-0.368817 0.516278 1.443
-0.366176 0.518068 1.448
-0.362508 0.518428 1.449
-0.359329 0.519504 1.452
-0.35589 0.520222 1.454
-0.352682 0.521299 1.457
-0.349458 0.522376 1.46
-0.345981 0.523095 1.462
-0.342962 0.524531 1.466
-0.339921 0.525967 1.47
-0.336858 0.527403 1.474
-0.333548 0.528481 1.477
-0.330222 0.52956 1.48
-0.32688 0.53064 1.483
-0.323304 0.531361 1.485
-0.319932 0.532441 1.488
-0.316332 0.533164 1.49
-0.312512 0.533528 1.491
-0.308686 0.533893 1.492
-0.305058 0.534616 1.494
-0.301823 0.536055 1.498
-0.298169 0.536778 1.5
-0.294308 0.537144 1.501
-0.290634 0.537868 1.503
-0.28695 0.538592 1.505
-0.283255 0.539316 1.507
-0.279179 0.539324 1.507
-0.275285 0.539691 1.508
-0.271026 0.539342 1.507
-0.266772 0.538993 1.506
-0.262349 0.538286 1.504
-0.258109 0.537937 1.503
-0.253705 0.53723 1.501
-0.249311 0.536523 1.499
-0.245256 0.536532 1.499
-0.240717 0.535468 1.496
-0.23667 0.535477 1.496
-0.232311 0.53477 1.494
-0.228116 0.534421 1.493
-0.223626 0.533357 1.49
-0.219004 0.531934 1.486
-0.214983 0.531943 1.486
-0.21082 0.531594 1.485
-0.206801 0.531603 1.485
-0.202372 0.530538 1.482
-0.198093 0.529832 1.48
-0.193957 0.529482 1.479
-0.189825 0.529133 1.478
-0.18595 0.5295 1.479
-0.1817 0.528793 1.477
-0.17698 0.526653 1.471
-0.172057 0.523797 1.463
-0.167292 0.5213 1.456
-0.162789 0.519518 1.451
-0.158313 0.517735 1.446
-0.154078 0.516669 1.443
-0.149754 0.515245 1.439
-0.145351 0.513462 1.434
-0.140975 0.511679 1.429
-0.136721 0.510254 1.425
-0.132583 0.509187 1.422
-0.128369 0.507762 1.418
-0.124266 0.506694 1.415
-0.120093 0.505269 1.411
-0.115941 0.503843 1.407
-0.111812 0.502417 1.403
-0.107857 0.501707 1.401
-0.103765 0.50028 1.397
-0.0997664 0.499212 1.394
-0.0957835 0.498143 1.391
-0.0916845 0.496358 1.386
-0.0876125 0.494572 1.381
-0.0836282 0.493144 1.377
-0.0796074 0.491359 1.372
-0.0756689 0.489931 1.368
-0.071752 0.488502 1.364
-0.0679565 0.48779 1.362
-0.0641245 0.48672 1.359
-0.0603088 0.485649 1.356
-0.0563838 0.483503 1.35
-0.0525304 0.481716 1.345
-0.0487041 0.479928 1.34
-0.0449383 0.478498 1.336
-0.0412561 0.477785 1.334
-0.0375282 0.476354 1.33
-0.0338219 0.474924 1.326
-0.0302513 0.475284 1.327
0.0223201 0.642912 1.795
0.0272755 0.64506 1.801
0.0322456 0.646849 1.806
0.0372017 0.647921 1.809
0.0421273 0.648277 1.81
0.0471104 0.649349 1.813
0.052167 0.651137 1.818
0.0572192 0.652566 1.822
0.0622589 0.653637 1.825
0.067278 0.654349 1.827
0.0724264 0.656136 1.832
0.0774328 0.656489 1.833
0.0824896 0.657201 1.835
0.0874617 0.657196 1.835
0.0926352 0.658623 1.839
0.0977771 0.659692 1.842
0.102991 0.661119 1.846
0.108109 0.661829 1.848
0.1133 0.662897 1.851
0.118506 0.663964 1.854
0.123729 0.665032 1.857
0.129175 0.667173 1.863
0.13451 0.668598 1.867
0.139942 0.670381 1.872
0.201334 0.727234 2.031
0.20775 0.730446 2.04
0.214319 0.734016 2.05
0.220621 0.736511 2.057
0.22718 0.739722 2.066
0.23345 0.741859 2.072
0.239751 0.743995 2.078
0.245849 0.745416 2.082
0.252693 0.748984 2.092
0.259468 0.752194 2.101
0.266291 0.755404 2.11
0.273034 0.758255 2.118
0.279688 0.760748 2.125
0.286245 0.762883 2.131
0.29352 0.766809 2.142
0.300435 0.769659 2.15
0.30782 0.773584 2.161
0.314394 0.77536 2.166
0.32129 0.777853 2.173
0.327923 0.779629 2.178
0.335503 0.783553 2.189
0.342829 0.786761 2.198
0.350046 0.789611 2.206
0.357144 0.792103 2.213
0.364444 0.794953 2.221
0.372121 0.798519 2.231
0.379004 0.800295 2.236
0.386431 0.803145 2.244
0.393376 0.804921 2.249
0.401059 0.808129 2.258
0.408609 0.810979 2.266
0.416386 0.814186 2.275
0.424212 0.817394 2.284
0.432274 0.82096 2.294
0.440391 0.824526 2.304
0.448561 0.828092 2.314
0.457375 0.832732 2.327
0.465463 0.835941 2.336
0.474205 0.840223 2.348
0.481989 0.842716 2.355
0.524966 0.860911 2.406
0.5328 0.863048 2.412
0.540889 0.865543 2.419
0.550149 0.869828 2.431
0.597422 0.891258 2.491
0.607314 0.895903 2.504
0.615806 0.898402 2.511
0.624584 0.90126 2.519
0.634158 0.905191 2.53
0.644805 0.910555 2.545
0.653742 0.913414 2.553
0.662722 0.916274 2.561
0.671746 0.919135 2.569
0.681078 0.922355 2.578
0.690459 0.925575 2.587
0.701238 0.930585 2.601
0.711277 0.934523 2.612
0.720825 0.937746 2.621
0.72959 0.939897 2.627
0.73923 0.943122 2.636
0.747787 0.944917 2.641
0.756943 0.947428 2.648
0.766427 0.950298 2.656
0.775664 0.952812 2.663
0.784646 0.954969 2.669
0.793662 0.957128 2.675
0.802411 0.958929 2.68
0.810888 0.960375 2.684
0.817558 0.959674 2.682
0.823603 0.95826 2.678
0.830869 0.958277 2.678
0.839389 0.959728 2.682
0.847616 0.960822 2.685
0.854905 0.960844 2.685
0.860912 0.959435 2.681
0.867547 0.958744 2.679
0.873519 0.957339 2.675
0.8798 0.956293 2.672
0.886067 0.955248 2.669
0.891985 0.953847 2.665
0.89822 0.952806 2.662
0.904442 0.951766 2.659
0.90962 0.949654 2.653
0.914768 0.947543 2.647
0.920582 0.94615 2.643
0.926377 0.944758 2.639
0.931444 0.942652 2.633
0.935769 0.939832 2.625
0.940052 0.937013 2.617
0.94538 0.93527 2.612
0.951413 0.934244 2.609
0.958167 0.933937 2.608
0.962697 0.931483 2.601
0.968311 0.930105 2.597
0.978037 0.932669 2.604
0.991966 0.939175 2.622
1.00104 0.941028 2.627
1.00746 0.940375 2.625
1.01426 0.940082 2.624
1.01873 0.937642 2.617
1.02315 0.935204 2.61
1.02597 0.931335 2.599
1.02912 0.927825 2.589
1.03182 0.923959 2.578
1.03568 0.92117 2.57
1.03909 0.918024 2.561
1.04205 0.914522 2.551
1.04413 0.910304 2.539
1.00744 0.650782 1.797
1.01212 0.650625 1.796
1.01737 0.650834 1.796
1.0249 0.652496 1.8
2.15479 1.33957 3.689
2.15809 1.33533 3.676
2.16368 1.33256 3.667
2.17222 1.33161 3.663
2.18194 1.33139 3.661
2.19467 1.33301 3.664
2.20684 1.33427 3.666
2.21663 1.33408 3.664
2.22339 1.33208 3.657
2.22402 1.32645 3.64
2.23562 1.32738 3.641
2.24973 1.32978 3.646
2.26422 1.30907 3.581
2.2765 1.31044 3.583
2.29264 1.31401 3.591
2.29924 1.3121 3.584
2.30712 1.31094 3.579
2.31176 1.30795 3.569
2.32158 1.3079 3.567
2.3288 1.3064 3.561
2.37859 1.28524 3.485
2.37954 1.28051 3.47
2.40041 1.28651 3.484
2.40203 1.28218 3.47
2.40708 1.2797 3.461
2.40931 1.27576 3.448
2.41431 1.2733 3.439
2.42423 1.27345 3.437
-0.54066 0.456289 1.282
-0.538383 0.45731 1.285
-0.536509 0.458689 1.289
-0.534615 0.460068 1.293
-0.531879 0.460737 1.295
-0.529134 0.461407 1.297
-0.526381 0.462077 1.299
-0.522813 0.462038 1.299
-0.520047 0.462711 1.301
-0.516478 0.462674 1.301
-0.514488 0.464061 1.305
-0.512477 0.465448 1.309
-0.510835 0.467192 1.314
-0.50801 0.467871 1.316
-0.505175 0.46855 1.318
-0.502331 0.46923 1.32
-0.4991 0.469556 1.321
-0.496239 0.470238 1.323
-0.493742 0.471277 1.326
-0.4916 0.472672 1.33
-0.489437 0.474067 1.334
-0.48689 0.475109 1.337
-0.483966 0.475795 1.339
-0.481032 0.476483 1.341
-0.478801 0.477882 1.345
-0.476196 0.478926 1.348
-0.473927 0.480327 1.352
-0.470593 0.480663 1.353
-0.467255 0.480999 1.354
-0.464598 0.482047 1.357
-0.461925 0.483096 1.36
-0.459574 0.4845 1.364
-0.456869 0.48555 1.367
-0.453816 0.486246 1.369
-0.450753 0.486942 1.371
-0.447681 0.48764 1.373
-0.444921 0.488692 1.376
-0.442467 0.490101 1.38
-0.439674 0.491156 1.383
-0.436866 0.492211 1.386
-0.434042 0.493266 1.389
-0.431513 0.494678 1.393
-0.428348 0.49538 1.395
-0.425478 0.496437 1.398
-0.422591 0.497496 1.401
-0.419989 0.49891 1.405
-0.416772 0.499614 1.407
-0.413546 0.500319 1.409
-0.410891 0.501734 1.413
-0.407926 0.502796 1.416
-0.404946 0.503857 1.419
-0.402233 0.505275 1.423
-0.398938 0.505982 1.425
-0.396188 0.507401 1.429
-0.392867 0.50811 1.431
-0.39008 0.509529 1.435
-0.387002 0.510594 1.438
-0.383909 0.511659 1.441
-0.380799 0.512725 1.444
-0.377674 0.513791 1.447
-0.374791 0.515212 1.451
-0.371631 0.51628 1.454
-0.368707 0.517702 1.458
-0.365263 0.518415 1.46
-0.361807 0.519128 1.462
-0.358586 0.520197 1.465
-0.355106 0.520911 1.467
-0.351856 0.52198 1.47
-0.348116 0.52234 1.471
-0.345072 0.523765 1.475
-0.342007 0.525191 1.479
-0.338692 0.526261 1.482
-0.335361 0.527332 1.485
-0.332013 0.528404 1.488
-0.32865 0.529476 1.491
-0.325052 0.530192 1.493
-0.321659 0.531265 1.496
-0.31825 0.532337 1.499
-0.314615 0.533055 1.501
-0.310762 0.533417 1.502
-0.307108 0.534136 1.504
-0.303645 0.535209 1.507
-0.299966 0.535927 1.509
-0.296081 0.536291 1.51
-0.29219 0.536655 1.511
-0.288294 0.537018 1.512
-0.28458 0.537738 1.514
-0.280485 0.537747 1.514
-0.276389 0.537756 1.514
-0.272114 0.53741 1.513
-0.267844 0.537064 1.512
-0.263405 0.536363 1.51
-0.258633 0.534951 1.506
-0.253883 0.53354 1.502
-0.249321 0.532483 1.499
-0.245102 0.532138 1.498
-0.241049 0.532147 1.498
-0.236679 0.531446 1.496
-0.232787 0.531811 1.497
-0.228584 0.531465 1.496
-0.224385 0.53112 1.495
-0.219898 0.530063 1.492
-0.215571 0.529362 1.49
-0.211539 0.529372 1.49
-0.207367 0.529026 1.489
-0.202928 0.527969 1.486
-0.198638 0.527268 1.484
-0.194097 0.525856 1.48
-0.18932 0.523733 1.474
-0.18445 0.521255 1.467
-0.179987 0.519842 1.463
-0.175665 0.518785 1.46
-0.171125 0.517017 1.455
-0.166496 0.514894 1.449
-0.162124 0.513481 1.445
-0.157884 0.512423 1.442
-0.153766 0.51172 1.44
-0.149658 0.511017 1.438
-0.145359 0.509604 1.434
-0.140982 0.507835 1.429
-0.136633 0.506065 1.424
-0.132497 0.505006 1.421
-0.128376 0.503947 1.418
-0.124448 0.503599 1.417
-0.120355 0.50254 1.414
-0.116278 0.50148 1.411
-0.112217 0.50042 1.408
-0.108172 0.49936 1.405
-0.104068 0.497945 1.401
-0.0999868 0.496529 1.397
-0.0959957 0.495468 1.394
-0.0918883 0.493697 1.389
-0.0878714 0.49228 1.385
-0.083876 0.490864 1.381
-0.0798442 0.489091 1.376
-0.0758947 0.487674 1.372
-0.0719141 0.485901 1.367
-0.0681102 0.485194 1.365
-0.0642228 0.483777 1.361
-0.0604013 0.482714 1.358
-0.0565125 0.48094 1.353
-0.0525727 0.478455 1.346
-0.0487434 0.476681 1.341
-0.0449747 0.475262 1.337
-0.0413205 0.474909 1.336
-0.0375869 0.47349 1.332
-0.033875 0.47207 1.328
-0.0302988 0.472428 1.329
0.022309 0.637732 1.794
0.0272469 0.639507 1.799
0.0321762 0.640572 1.802
0.0371217 0.641636 1.805
0.0420368 0.641989 1.806
0.0470613 0.643764 1.811
0.0520841 0.645183 1.815
0.0571599 0.646957 1.82
0.0621945 0.648019 1.823
0.0672821 0.649437 1.827
0.0723912 0.650855 1.831
0.0773953 0.651206 1.832
0.0824496 0.651912 1.834
0.0874669 0.652262 1.835
0.0925903 0.653323 1.838
0.0977829 0.654739 1.842
0.102941 0.6558 1.845
0.108174 0.657215 1.849
0.113306 0.657919 1.851
0.118513 0.658979 1.854
0.123669 0.659683 1.856
0.128975 0.661097 1.86
0.134446 0.663222 1.866
0.139875 0.664991 1.871
0.201642 0.722836 2.034
0.207965 0.725668 2.042
0.214331 0.7285 2.05
0.22074 0.731331 2.058
0.227302 0.734518 2.067
0.233574 0.736638 2.073
0.239533 0.737692 2.076
0.245861 0.739812 2.082
0.252827 0.743708 2.093
0.259851 0.747604 2.104
0.266556 0.750434 2.112
0.273046 0.752553 2.118
0.279569 0.754672 2.124
0.286393 0.757501 2.132
0.29367 0.761396 2.143
0.300868 0.764935 2.153
0.308119 0.768475 2.163
0.314698 0.770237 2.168
0.3216 0.77271 2.175
0.328238 0.774473 2.18
0.335516 0.777656 2.189
0.342687 0.780484 2.197
0.349584 0.782602 2.203
0.356997 0.785785 2.212
0.364458 0.788968 2.221
0.372302 0.792861 2.232
0.379018 0.794268 2.236
0.386445 0.797096 2.244
0.39374 0.799569 2.251
0.401427 0.802751 2.26
0.409344 0.80629 2.27
0.417132 0.809473 2.279
0.424968 0.812656 2.288
0.432476 0.815128 2.295
0.440213 0.817956 2.303
0.448768 0.822205 2.315
0.457388 0.826454 2.327
0.465675 0.829993 2.337
0.474015 0.833532 2.347
0.482001 0.83636 2.355
0.525195 0.854769 2.407
0.533914 0.858309 2.417
0.542464 0.861495 2.426
0.551289 0.865036 2.436
0.597908 0.885234 2.493
0.607563 0.889488 2.505
0.616302 0.892323 2.513
0.624589 0.894447 2.519
0.633661 0.897638 2.528
0.643542 0.901895 2.54
0.653233 0.905797 2.551
0.662983 0.909699 2.562
0.672009 0.912538 2.57
0.680815 0.915021 2.577
0.690192 0.918216 2.586
0.701507 0.923898 2.602
0.711547 0.927804 2.613
0.721098 0.931002 2.622
0.729586 0.93278 2.627
0.739225 0.935979 2.636
0.747781 0.937759 2.641
0.75665 0.939896 2.647
0.76613 0.942743 2.655
0.775946 0.945947 2.664
0.784636 0.947731 2.669
0.79365 0.949872 2.675
0.802698 0.952014 2.681
0.811478 0.953802 2.686
0.818152 0.953105 2.684
0.823894 0.951345 2.679
0.831472 0.951716 2.68
0.839683 0.952799 2.683
0.848227 0.954239 2.687
0.854565 0.953194 2.684
0.86121 0.952505 2.682
0.867522 0.951463 2.679
0.874146 0.950777 2.677
0.880102 0.949383 2.673
0.886702 0.9487 2.671
0.892289 0.946953 2.666
0.8992 0.946628 2.665
0.904748 0.944884 2.66
0.91027 0.943142 2.655
0.915422 0.941046 2.649
0.92124 0.939662 2.645
0.926687 0.937924 2.64
0.93211 0.936188 2.635
0.936795 0.933743 2.628
0.941084 0.930944 2.62
0.946057 0.928857 2.614
0.952093 0.927838 2.611
0.958483 0.927177 2.609
0.963015 0.92474 2.602
0.967884 0.92266 2.596
0.976103 0.923781 2.599
0.990394 0.930591 2.618
1.0006 0.933495 2.626
1.00817 0.933912 2.627
1.01459 0.933264 2.625
1.01905 0.930841 2.618
1.02269 0.927709 2.609
1.02629 0.924578 2.6
1.02984 0.92145 2.591
1.03215 0.917256 2.579
1.036 0.914486 2.571
1.03941 0.911363 2.562
1.04278 0.908242 2.553
1.04445 0.903699 2.54
1.0078 0.646088 1.798
1.01191 0.645571 1.796
1.01716 0.645776 1.796
1.02526 0.647784 1.801
2.15022 1.32661 3.682
2.15936 1.32601 3.679
2.16673 1.32434 3.673
2.17349 1.32231 3.666
2.18024 1.32029 3.659
2.19056 1.32044 3.658
2.19969 1.31988 3.655
2.20822 1.31897 3.651
2.21797 1.31878 3.649
2.22285 1.31572 3.639
2.23014 1.31411 3.633
2.24113 1.31467 3.633
2.27182 1.30352 3.594
2.2765 1.30052 3.584
2.29008 1.30261 3.588
2.29859 1.3018 3.584
2.30517 1.29991 3.577
2.30979 1.29694 3.567
2.31699 1.29544 3.561
2.32614 1.29504 3.558
2.37302 1.27252 3.478
2.38216 1.27222 3.475
2.38788 1.2701 3.467
2.39566 1.2691 3.462
2.40275 1.26773 3.456
2.40985 1.26638 3.45
2.41203 1.26247 3.437
2.4184 1.26078 3.43
-0.728881 0.417176 1.16
-0.726594 0.417704 1.162
-0.726792 0.419672 1.168
-0.725725 0.420923 1.172
-0.724025 0.421816 1.175
-0.72109 0.421995 1.176
-0.718767 0.422535 1.178
-0.717047 0.423437 1.181
-0.714108 0.423623 1.182
-0.712975 0.424888 1.186
-0.709433 0.424722 1.186
-0.707089 0.425274 1.188
-0.702372 0.424398 1.186
-0.699441 0.424598 1.187
-0.696512 0.424801 1.188
-0.694167 0.425364 1.19
-0.691817 0.42593 1.192
-0.688885 0.42614 1.193
-0.687677 0.427424 1.197
-0.684165 0.427282 1.197
-0.681798 0.427856 1.199
-0.677728 0.427363 1.198
-0.674232 0.427228 1.198
-0.671303 0.427453 1.199
-0.669487 0.428393 1.202
-0.668214 0.429691 1.206
-0.665822 0.430278 1.208
-0.662327 0.430155 1.208
-0.658292 0.429678 1.207
-0.655353 0.429916 1.208
-0.653493 0.430867 1.211
-0.650011 0.430753 1.211
-0.648669 0.432064 1.215
-0.646778 0.433021 1.218
-0.644876 0.433979 1.221
-0.640334 0.433162 1.219
-0.637898 0.433769 1.221
-0.633378 0.432957 1.219
-0.631974 0.434278 1.223
-0.630037 0.435245 1.226
-0.628599 0.436569 1.23
-0.624602 0.43612 1.229
-0.621625 0.436382 1.23
-0.618647 0.436647 1.231
-0.616667 0.437622 1.234
-0.61517 0.438953 1.238
-0.612173 0.439223 1.239
-0.609666 0.439848 1.241
-0.607151 0.440475 1.243
-0.604628 0.441104 1.245
-0.601615 0.441379 1.246
-0.59908 0.442011 1.248
-0.596538 0.442644 1.25
-0.593987 0.443279 1.252
-0.590014 0.442853 1.251
-0.587456 0.443491 1.253
-0.585357 0.444484 1.256
-0.583244 0.445478 1.259
-0.581577 0.446827 1.263
-0.578977 0.447471 1.265
-0.576368 0.448115 1.267
-0.573299 0.448407 1.268
-0.570676 0.449054 1.27
-0.568492 0.450056 1.273
-0.56585 0.450706 1.275
-0.5632 0.451357 1.277
-0.560541 0.45201 1.279
-0.557438 0.45231 1.28
-0.554765 0.452965 1.282
-0.553804 0.455034 1.288
-0.551102 0.455691 1.29
-0.547544 0.455643 1.29
-0.543144 0.45489 1.288
-0.541271 0.456258 1.292
-0.538962 0.457273 1.295
-0.537466 0.458995 1.3
-0.534301 0.459306 1.301
-0.531541 0.459972 1.303
-0.528772 0.460638 1.305
-0.525995 0.461306 1.307
-0.523607 0.462327 1.31
-0.520015 0.462291 1.31
-0.517212 0.462962 1.312
-0.514401 0.463634 1.314
-0.512358 0.465012 1.318
-0.510294 0.466391 1.322
-0.507444 0.467066 1.324
-0.504965 0.468094 1.327
-0.502471 0.469124 1.33
-0.499587 0.469801 1.332
-0.497067 0.470832 1.335
-0.494531 0.471865 1.338
-0.49198 0.472898 1.341
-0.489415 0.473931 1.344
-0.486834 0.474966 1.347
-0.484238 0.476002 1.35
-0.481984 0.477391 1.354
-0.479355 0.478428 1.357
-0.476711 0.479466 1.36
-0.473009 0.479447 1.36
-0.469998 0.480134 1.362
-0.46732 0.481174 1.365
-0.464966 0.482568 1.369
-0.462254 0.48361 1.372
-0.459527 0.484653 1.375
-0.456785 0.485696 1.378
-0.45337 0.486035 1.379
-0.450603 0.48708 1.382
-0.44782 0.488126 1.385
-0.445342 0.489524 1.389
-0.442207 0.490219 1.391
-0.439693 0.491619 1.395
-0.437158 0.49302 1.399
-0.434602 0.494421 1.403
-0.431411 0.495118 1.405
-0.428514 0.496168 1.408
-0.425601 0.497219 1.411
-0.422374 0.497918 1.413
-0.419137 0.498618 1.415
-0.415889 0.499318 1.417
-0.413504 0.501076 1.422
-0.410515 0.502129 1.425
-0.407511 0.503183 1.428
-0.404492 0.504238 1.431
-0.401176 0.504941 1.433
-0.398127 0.505997 1.436
-0.395337 0.507406 1.44
-0.392526 0.508815 1.444
-0.389155 0.50952 1.446
-0.385774 0.510225 1.448
-0.382646 0.511283 1.451
-0.379763 0.512694 1.455
-0.376859 0.514106 1.459
-0.373678 0.515165 1.462
-0.37048 0.516225 1.465
-0.367017 0.516933 1.467
-0.363543 0.517642 1.469
-0.360303 0.518703 1.472
-0.356563 0.51906 1.473
-0.353296 0.520122 1.476
-0.349777 0.520831 1.478
-0.346481 0.521894 1.481
-0.343169 0.522957 1.484
-0.339612 0.523668 1.486
-0.336044 0.524379 1.488
-0.332466 0.52509 1.49
-0.329097 0.526154 1.493
-0.325713 0.527219 1.496
-0.322312 0.528283 1.499
-0.318894 0.529348 1.502
-0.315251 0.530061 1.504
-0.311391 0.530421 1.505
-0.307524 0.530782 1.506
-0.304056 0.531848 1.509
-0.300173 0.532209 1.51
-0.296089 0.532218 1.51
-0.292005 0.532227 1.51
-0.288493 0.533293 1.513
-0.284589 0.533655 1.514
-0.280864 0.534369 1.516
-0.276399 0.533674 1.514
-0.271944 0.532978 1.512
-0.267854 0.532988 1.512
-0.263415 0.532292 1.51
-0.258643 0.530892 1.506
-0.253047 0.527729 1.497
-0.248 0.525624 1.491
-0.243475 0.524576 1.488
-0.240576 0.527053 1.495
-0.236847 0.527768 1.497
-0.23373 0.529894 1.503
-0.229357 0.529198 1.501
-0.225296 0.529208 1.501
-0.220792 0.52816 1.498
-0.216159 0.52676 1.494
-0.211406 0.525007 1.489
-0.206541 0.522901 1.483
-0.201981 0.5215 1.479
-0.197443 0.520099 1.475
-0.193057 0.519051 1.472
-0.188687 0.518002 1.469
-0.184082 0.516248 1.464
-0.179627 0.514847 1.46
-0.175313 0.513798 1.457
-0.170898 0.512396 1.453
-0.16639 0.510641 1.448
-0.162133 0.509592 1.445
-0.158001 0.508895 1.443
-0.15388 0.508198 1.441
-0.149666 0.507148 1.438
-0.145468 0.506098 1.435
-0.141286 0.505048 1.432
-0.137024 0.503645 1.428
-0.13297 0.502947 1.426
-0.128836 0.501896 1.423
-0.124806 0.501198 1.421
-0.120702 0.500147 1.418
-0.116696 0.499448 1.416
-0.112542 0.498044 1.412
-0.108409 0.49664 1.408
-0.104223 0.494882 1.403
-0.100064 0.493125 1.398
-0.0960702 0.492072 1.395
-0.0920261 0.490667 1.391
-0.0880035 0.489261 1.387
-0.083881 0.48715 1.381
-0.079849 0.485391 1.376
-0.0760099 0.484691 1.374
-0.0720237 0.482931 1.369
-0.0681643 0.481877 1.366
-0.0642267 0.480118 1.361
-0.0604495 0.479416 1.359
-0.0565578 0.477656 1.354
-0.052654 0.475542 1.348
-0.0487827 0.473429 1.342
-0.0450112 0.472021 1.338
-0.041354 0.471671 1.337
-0.0376175 0.470262 1.333
-0.0339027 0.468853 1.329
-0.0303463 0.469561 1.331
0.022298 0.632556 1.793
0.0272335 0.634319 1.798
0.0321247 0.63467 1.799
0.0370623 0.635726 1.802
0.0420162 0.636782 1.805
0.0470642 0.638896 1.811
0.0520586 0.639951 1.814
0.0571006 0.641359 1.818
0.0621642 0.642766 1.822
0.0672494 0.644173 1.826
0.0723166 0.645227 1.829
0.0773155 0.645575 1.83
0.0824097 0.646628 1.833
0.0874246 0.646976 1.834
0.0924952 0.647676 1.836
0.0976827 0.649081 1.84
0.10278 0.649781 1.842
0.108122 0.651891 1.848
0.113252 0.652589 1.85
0.11852 0.653993 1.854
0.123677 0.654692 1.856
0.128982 0.656095 1.86
0.134382 0.657851 1.865
0.139733 0.659254 1.869
0.145106 0.660656 1.873
0.150661 0.662764 1.879
0.156331 0.665224 1.886
0.162382 0.669095 1.897
0.20195 0.718422 2.037
0.208078 0.720527 2.043
0.214342 0.722984 2.05
0.220644 0.725441 2.057
0.227423 0.729309 2.068
0.233699 0.731412 2.074
0.23966 0.732458 2.077
0.245992 0.734561 2.083
0.25296 0.738428 2.094
0.260111 0.742646 2.106
0.266822 0.745454 2.114
0.273318 0.747557 2.12
0.280241 0.750717 2.129
0.287078 0.753524 2.137
0.294095 0.756684 2.146
0.300881 0.759138 2.153
0.30799 0.762297 2.162
0.315147 0.765456 2.171
0.322057 0.76791 2.178
0.328704 0.769659 2.183
0.335684 0.772112 2.19
0.342701 0.774566 2.197
0.349757 0.777019 2.204
0.35685 0.779472 2.211
0.364637 0.783336 2.222
0.371816 0.785789 2.229
0.378863 0.78789 2.235
0.386115 0.790343 2.242
0.394104 0.794206 2.253
0.402152 0.798069 2.264
0.409719 0.800875 2.272
0.417512 0.804033 2.281
0.424982 0.806486 2.288
0.43249 0.808939 2.295
0.440035 0.811393 2.302
0.448394 0.815256 2.313
0.457205 0.819824 2.326
0.465887 0.82404 2.338
0.47423 0.827551 2.348
0.482218 0.830358 2.356
0.490664 0.833869 2.366
0.498743 0.836676 2.374
0.507505 0.840541 2.385
0.516757 0.84511 2.398
0.560865 0.863028 2.449
0.569343 0.865837 2.457
0.578802 0.870056 2.469
0.588326 0.874276 2.481
0.673057 0.906993 2.574
0.682137 0.909809 2.582
0.691261 0.912626 2.59
0.702585 0.918263 2.606
0.712091 0.921434 2.615
0.721646 0.924606 2.624
0.729862 0.926017 2.628
0.739502 0.929191 2.637
0.747776 0.930604 2.641
0.756931 0.933075 2.648
0.766124 0.935547 2.655
0.775938 0.938725 2.664
0.784627 0.940495 2.669
0.793937 0.94297 2.676
0.802687 0.944742 2.681
0.811163 0.946163 2.685
0.818138 0.945823 2.684
0.824187 0.944427 2.68
0.832076 0.945147 2.682
0.840604 0.946572 2.686
0.849155 0.947999 2.69
0.8555 0.946961 2.687
0.86183 0.945924 2.684
0.868146 0.944888 2.681
0.874448 0.943854 2.678
0.880405 0.942469 2.674
0.886342 0.941085 2.67
0.892595 0.940055 2.667
0.89917 0.939379 2.665
0.905396 0.938352 2.662
0.910922 0.936621 2.657
0.916078 0.93454 2.651
0.921203 0.93246 2.645
0.927351 0.931439 2.642
0.932777 0.929715 2.637
0.937822 0.92764 2.631
0.9414 0.924156 2.621
0.947097 0.922789 2.617
0.952775 0.921424 2.613
0.959169 0.920766 2.611
0.962964 0.917641 2.602
0.967831 0.915576 2.596
0.976423 0.917039 2.6
0.991472 0.924501 2.621
1.00245 0.928086 2.631
1.00964 0.928145 2.631
1.01452 0.926091 2.625
1.0182 0.922979 2.616
1.02145 0.919516 2.606
1.02622 0.917467 2.6
1.03057 0.915066 2.593
1.03288 0.910903 2.581
1.03477 0.685111 1.926
1.03112 0.679244 1.909
1.03337 0.677293 1.903
1.03176 0.672851 1.89
1.0076 0.641036 1.798
1.01171 0.640521 1.796
1.01808 0.641437 1.798
1.02619 0.643427 1.803
2.14858 1.31549 3.68
2.15771 1.31489 3.677
2.16565 1.31359 3.672
2.17181 1.31121 3.664
2.21378 1.30626 3.643
2.2223 1.30536 3.639
2.23143 1.30484 3.636
2.2381 1.30288 3.629
2.25095 1.30453 3.632
2.25139 1.299 3.615
2.25801 1.29707 3.608
2.26713 1.29659 3.605
2.33 1.28186 3.548
2.34311 1.28364 3.551
2.34367 1.27857 3.535
2.34549 1.27422 3.521
2.35998 1.27676 3.526
2.3705 1.27715 3.525
2.37024 1.27174 3.508
2.37398 1.26852 3.497
-0.740625 0.420641 1.179
-0.735157 0.41938 1.176
-0.733449 0.420262 1.179
-0.729875 0.420077 1.179
-0.728157 0.420964 1.182
-0.725204 0.421142 1.183
-0.722862 0.421678 1.185
-0.719303 0.421506 1.185
-0.715751 0.421336 1.185
-0.714011 0.422236 1.188
-0.711662 0.422782 1.19
-0.709309 0.423332 1.192
-0.704583 0.422463 1.19
-0.701054 0.422308 1.19
-0.698118 0.42251 1.191
-0.695184 0.422715 1.192
-0.693411 0.423631 1.195
-0.69105 0.424195 1.197
-0.688683 0.424761 1.199
-0.684597 0.424267 1.198
-0.68166 0.424484 1.199
-0.678724 0.424703 1.2
-0.675226 0.424571 1.2
-0.672853 0.425148 1.202
-0.671031 0.426081 1.205
-0.670305 0.427723 1.21
-0.667352 0.427953 1.211
-0.66385 0.427832 1.211
-0.660355 0.427713 1.211
-0.657406 0.42795 1.212
-0.655537 0.428894 1.215
-0.653655 0.429841 1.218
-0.650694 0.430083 1.219
-0.648263 0.43068 1.221
-0.646354 0.431632 1.224
-0.642331 0.431175 1.223
-0.640408 0.43213 1.226
-0.636915 0.43203 1.226
-0.636009 0.433693 1.231
-0.633024 0.433949 1.232
-0.63106 0.43491 1.235
-0.628066 0.43517 1.236
-0.624567 0.435079 1.236
-0.621573 0.435341 1.237
-0.618578 0.435606 1.238
-0.616576 0.436576 1.241
-0.61456 0.437547 1.244
-0.61204 0.438169 1.246
-0.609024 0.43844 1.247
-0.606006 0.438712 1.248
-0.603469 0.439338 1.25
-0.601405 0.440317 1.253
-0.59885 0.440946 1.255
-0.596761 0.441928 1.258
-0.592773 0.441506 1.257
-0.5902 0.442139 1.259
-0.588086 0.443125 1.262
-0.58642 0.444463 1.266
-0.584276 0.445452 1.269
-0.582117 0.446441 1.272
-0.57949 0.447081 1.274
-0.576855 0.447723 1.276
-0.573763 0.448014 1.277
-0.570667 0.448308 1.278
-0.568456 0.449304 1.281
-0.565791 0.449951 1.283
-0.563555 0.450949 1.286
-0.560434 0.451248 1.287
-0.557311 0.451547 1.288
-0.555474 0.4529 1.292
-0.55319 0.453903 1.295
-0.550468 0.454557 1.297
-0.546472 0.454161 1.296
-0.544159 0.455168 1.299
-0.541832 0.456176 1.302
-0.539904 0.457535 1.306
-0.537135 0.458195 1.308
-0.534765 0.459206 1.311
-0.53238 0.460218 1.314
-0.529177 0.460531 1.315
-0.526369 0.461195 1.317
-0.522758 0.46116 1.317
-0.519938 0.461826 1.319
-0.517108 0.462493 1.321
-0.515047 0.463861 1.325
-0.513351 0.465581 1.33
-0.51048 0.466251 1.332
-0.508361 0.467622 1.336
-0.505465 0.468294 1.338
-0.502561 0.468967 1.34
-0.500019 0.46999 1.343
-0.497463 0.471015 1.346
-0.494891 0.472041 1.349
-0.49194 0.472717 1.351
-0.488619 0.473045 1.352
-0.48601 0.474073 1.355
-0.483743 0.475452 1.359
-0.481455 0.476832 1.363
-0.478445 0.477512 1.365
-0.475426 0.478194 1.367
-0.472742 0.479226 1.37
-0.470042 0.480259 1.373
-0.466988 0.480943 1.375
-0.464261 0.481978 1.378
-0.461519 0.483013 1.381
-0.458761 0.484049 1.384
-0.45533 0.484386 1.385
-0.452547 0.485424 1.388
-0.449748 0.486462 1.391
-0.447255 0.48785 1.395
-0.443787 0.488191 1.396
-0.44126 0.48958 1.4
-0.4384 0.490621 1.403
-0.435833 0.492012 1.407
-0.432939 0.493055 1.41
-0.430029 0.494097 1.413
-0.427405 0.49549 1.417
-0.424163 0.496185 1.419
-0.420613 0.49653 1.42
-0.417353 0.497225 1.422
-0.414663 0.49862 1.426
-0.411665 0.499667 1.429
-0.408651 0.500713 1.432
-0.405055 0.501061 1.433
-0.401735 0.50176 1.435
-0.398681 0.502808 1.438
-0.395886 0.504206 1.442
-0.392798 0.505256 1.445
-0.389156 0.505606 1.446
-0.385509 0.505957 1.447
-0.382384 0.507008 1.45
-0.379243 0.508059 1.453
-0.376345 0.50946 1.457
-0.373425 0.510862 1.461
-0.370231 0.511914 1.464
-0.367021 0.512967 1.467
-0.363052 0.512971 1.467
-0.359818 0.514025 1.47
-0.356326 0.514729 1.472
-0.353302 0.516133 1.476
-0.350019 0.517188 1.479
-0.346721 0.518243 1.482
-0.343406 0.519298 1.485
-0.339847 0.520004 1.487
-0.336051 0.52036 1.488
-0.332473 0.521067 1.49
-0.329105 0.522123 1.493
-0.325938 0.52353 1.497
-0.322319 0.524237 1.499
-0.31869 0.524945 1.501
-0.31505 0.525652 1.503
-0.310985 0.525661 1.503
-0.307125 0.526019 1.504
-0.30346 0.526728 1.506
-0.299785 0.527436 1.508
-0.295902 0.527795 1.509
-0.291628 0.527455 1.508
-0.28793 0.528164 1.51
-0.284222 0.528873 1.512
-0.280318 0.529232 1.513
-0.275861 0.528543 1.511
-0.271054 0.527153 1.507
-0.266978 0.527163 1.507
-0.262727 0.526823 1.506
-0.258481 0.526484 1.505
-0.253226 0.524045 1.498
-0.248509 0.522656 1.494
-0.244139 0.521966 1.492
-0.241068 0.524075 1.498
-0.23749 0.525135 1.501
-0.233429 0.525145 1.501
-0.228756 0.523756 1.497
-0.224255 0.522717 1.494
-0.21977 0.521677 1.491
-0.215446 0.520987 1.489
-0.210848 0.519598 1.485
-0.206411 0.518558 1.482
-0.201718 0.516818 1.477
-0.197318 0.515778 1.474
-0.193066 0.515088 1.472
-0.188568 0.513698 1.468
-0.184091 0.512308 1.464
-0.179759 0.511267 1.461
-0.175563 0.510576 1.459
-0.171142 0.509186 1.455
-0.166743 0.507795 1.451
-0.162478 0.506754 1.448
-0.158448 0.506412 1.447
-0.154209 0.505371 1.444
-0.149987 0.50433 1.441
-0.145679 0.502938 1.437
-0.14159 0.502246 1.435
-0.137416 0.501204 1.432
-0.133351 0.500511 1.43
-0.129115 0.499119 1.426
-0.125077 0.498426 1.424
-0.120964 0.497383 1.421
-0.116868 0.49634 1.418
-0.112708 0.494947 1.414
-0.108569 0.493553 1.41
-0.104304 0.49146 1.404
-0.100142 0.489715 1.399
-0.096076 0.488321 1.395
-0.092164 0.487627 1.393
-0.0880089 0.485532 1.387
-0.0840076 0.484137 1.383
-0.080028 0.482742 1.379
-0.0761252 0.481697 1.376
-0.072186 0.480301 1.372
-0.0682683 0.478905 1.368
-0.0643251 0.477159 1.363
-0.0604533 0.475762 1.359
-0.0566449 0.474716 1.356
-0.0527746 0.472969 1.351
-0.0489676 0.471572 1.347
-0.0451822 0.470174 1.343
-0.0414494 0.469127 1.34
-0.0376763 0.467379 1.335
-0.0339814 0.466331 1.332
-0.0304166 0.467033 1.334
0.0222745 0.627037 1.791
0.0271898 0.628436 1.795
0.0321089 0.629484 1.798
0.0370236 0.630182 1.8
0.0420189 0.63193 1.805
0.0470672 0.634028 1.811
0.0520045 0.634374 1.812
0.0570414 0.635771 1.816
0.0620999 0.637168 1.82
0.0672168 0.638914 1.825
0.0722421 0.63961 1.827
0.0772359 0.639955 1.828
0.0823249 0.641001 1.831
0.0873824 0.641695 1.833
0.0924505 0.64239 1.835
0.0976356 0.643784 1.839
0.102675 0.644128 1.84
0.108012 0.646222 1.846
0.113198 0.647265 1.849
0.118463 0.648658 1.853
0.123617 0.649351 1.855
0.128921 0.650744 1.859
0.134318 0.652486 1.864
0.139742 0.654228 1.869
0.145115 0.65562 1.873
0.15043 0.656661 1.876
0.156092 0.659102 1.883
0.162049 0.662593 1.893
0.202259 0.713992 2.04
0.208191 0.715381 2.044
0.214458 0.717819 2.051
0.22087 0.720607 2.059
0.227546 0.724094 2.069
0.234049 0.726881 2.077
0.240134 0.728269 2.081
0.246595 0.730705 2.088
0.253094 0.733142 2.095
0.260001 0.736628 2.105
0.266835 0.739764 2.114
0.273589 0.74255 2.122
0.280518 0.745685 2.131
0.287629 0.749171 2.141
0.29452 0.751956 2.149
0.301315 0.754391 2.156
0.308289 0.757176 2.164
0.315307 0.75996 2.172
0.322515 0.763094 2.181
0.329321 0.765179 2.187
0.336005 0.766913 2.192
0.342872 0.768998 2.198
0.350089 0.771782 2.206
0.35751 0.774915 2.215
0.365308 0.778749 2.226
0.372498 0.781182 2.233
0.379725 0.783616 2.24
0.386818 0.7857 2.246
0.394643 0.789183 2.256
0.402344 0.792316 2.265
0.410274 0.795799 2.275
0.417892 0.798583 2.283
0.425554 0.801367 2.291
0.432881 0.803451 2.297
0.440623 0.806234 2.305
0.448989 0.810067 2.316
0.457612 0.81425 2.328
0.4661 0.818083 2.339
0.474042 0.820867 2.347
0.482436 0.824351 2.357
0.490884 0.827835 2.367
0.499387 0.831319 2.377
0.508581 0.835852 2.39
0.516984 0.838987 2.399
0.561563 0.857462 2.452
0.570744 0.861298 2.463
0.579984 0.865135 2.474
0.58881 0.868272 2.483
0.674368 0.901778 2.579
0.683197 0.904222 2.586
0.691797 0.906317 2.592
0.702587 0.91121 2.606
0.711819 0.914006 2.614
0.72192 0.917851 2.625
0.730415 0.9196 2.63
0.73978 0.922399 2.638
0.748056 0.9238 2.642
0.757212 0.926251 2.649
0.766407 0.928703 2.656
0.775932 0.931505 2.664
0.784913 0.93361 2.67
0.794225 0.936065 2.677
0.802976 0.937822 2.682
0.811454 0.93923 2.686
0.818736 0.939241 2.686
0.824788 0.937855 2.682
0.832992 0.938918 2.685
0.840901 0.939632 2.687
0.849769 0.941396 2.692
0.8558 0.940015 2.688
0.862131 0.938985 2.685
0.868449 0.937955 2.682
0.875078 0.937277 2.68
0.881039 0.935901 2.676
0.887976 0.935576 2.675
0.893906 0.934203 2.671
0.900153 0.933181 2.668
0.905706 0.931461 2.663
0.911233 0.929743 2.658
0.916736 0.928026 2.653
0.922213 0.92631 2.648
0.928367 0.925296 2.645
0.9338 0.923584 2.64
0.938495 0.921173 2.633
0.942795 0.918414 2.625
0.948139 0.916707 2.62
0.953824 0.915351 2.616
0.959857 0.914346 2.613
0.964395 0.911944 2.606
0.969644 0.910243 2.601
0.978248 0.911694 2.605
0.992551 0.918397 2.624
1.00315 0.921603 2.633
1.01035 0.92166 2.633
1.01407 0.91857 2.624
1.01775 0.91548 2.615
1.0206 0.911693 2.604
1.02536 0.909658 2.598
1.0301 0.907624 2.592
1.0332 0.904192 2.582
1.03244 0.678318 1.922
1.03364 0.675673 1.914
1.03535 0.673382 1.907
1.03539 0.670034 1.897
1.00684 0.635634 1.797
1.01207 0.635829 1.797
1.01788 0.636382 1.798
1.02598 0.638355 1.803
2.15396 1.30865 3.69
2.16193 1.30734 3.685
2.17343 1.30817 3.686
2.18199 1.30724 3.682
2.21508 1.29698 3.646
2.22115 1.29466 3.638
2.2321 1.29521 3.638
2.23815 1.29291 3.63
2.24852 1.29311 3.629
2.25641 1.2919 3.624
2.2618 1.28927 3.615
2.27219 1.2895 3.614
2.3326 1.27343 3.553
2.33911 1.27161 3.546
2.33965 1.26656 3.53
2.34344 1.26333 3.519
2.35055 1.26189 3.513
2.36236 1.26298 3.514
2.36341 1.25833 3.499
2.37118 1.25729 3.494
-0.742317 0.418338 1.182
-0.735595 0.41638 1.177
-0.732643 0.416549 1.178
-0.729694 0.416721 1.179
-0.729826 0.418663 1.185
-0.728705 0.419899 1.189
-0.726349 0.420431 1.191
-0.721561 0.419555 1.189
-0.717396 0.419035 1.188
-0.715048 0.419576 1.19
-0.713294 0.420471 1.193
-0.709745 0.420312 1.193
-0.706795 0.420508 1.194
-0.703846 0.420707 1.195
-0.701484 0.42126 1.197
-0.698535 0.421464 1.198
-0.696747 0.422373 1.201
-0.69437 0.422933 1.203
-0.691414 0.423144 1.204
-0.687317 0.422654 1.203
-0.684368 0.42287 1.204
-0.681419 0.423088 1.205
-0.677909 0.422957 1.205
-0.674964 0.42318 1.206
-0.672019 0.423405 1.207
-0.671289 0.425035 1.212
-0.667782 0.424913 1.212
-0.665924 0.425845 1.215
-0.662964 0.426079 1.216
-0.660546 0.426664 1.218
-0.658122 0.427252 1.22
-0.655155 0.427491 1.221
-0.653254 0.428432 1.224
-0.65028 0.428675 1.225
-0.648361 0.42962 1.228
-0.644329 0.429168 1.227
-0.642397 0.430116 1.23
-0.638894 0.430017 1.23
-0.637462 0.431318 1.234
-0.633957 0.431223 1.234
-0.632499 0.432528 1.238
-0.6295 0.432786 1.239
-0.627509 0.433744 1.242
-0.623998 0.433656 1.242
-0.62149 0.434268 1.244
-0.619472 0.435231 1.247
-0.616947 0.435846 1.249
-0.614415 0.436463 1.251
-0.61041 0.436035 1.25
-0.607871 0.436655 1.252
-0.605808 0.437626 1.255
-0.60373 0.438598 1.258
-0.600686 0.438874 1.259
-0.598114 0.4395 1.261
-0.595533 0.440127 1.263
-0.593414 0.441105 1.266
-0.590815 0.441735 1.268
-0.588208 0.442367 1.27
-0.586054 0.443348 1.273
-0.583886 0.44433 1.276
-0.582159 0.445663 1.28
