0.59611 -0.130264 1.306
0.598282 -0.129968 1.303
0.601364 -0.129871 1.302
0.604442 -0.129775 1.301
0.607049 -0.12958 1.299
0.609178 -0.129285 1.296
0.611292 -0.128991 1.293
0.613867 -0.128797 1.291
0.616912 -0.128703 1.29
0.619954 -0.128609 1.289
0.622993 -0.128516 1.288
0.625055 -0.128223 1.285
0.626615 -0.127831 1.281
0.62963 -0.127739 1.28
0.635116 -0.128146 1.284
0.63814 -0.128055 1.283
0.639661 -0.127665 1.279
0.642671 -0.127574 1.278
0.647195 -0.127784 1.28
0.650208 -0.127694 1.279
0.651173 -0.127206 1.274
0.651601 -0.126618 1.268
0.654065 -0.12643 1.266
0.658599 -0.126642 1.268
0.662624 -0.126754 1.269
0.664035 -0.126368 1.265
0.667009 -0.126282 1.264
0.66892 -0.125996 1.261
0.671885 -0.125911 1.26
0.67324 -0.125526 1.256
0.676731 -0.125542 1.256
0.680226 -0.125558 1.256
0.682636 -0.125375 1.254
0.685587 -0.125292 1.253
0.689085 -0.12531 1.253
0.692588 -0.125328 1.253
0.694983 -0.125147 1.251
0.696256 -0.124766 1.247
0.699754 -0.124786 1.247
0.703821 -0.124907 1.248
0.706198 -0.124728 1.246
0.707429 -0.124349 1.242
0.710359 -0.124271 1.241
0.712714 -0.124094 1.239
0.715062 -0.123917 1.237
0.718565 -0.123941 1.237
0.724409 -0.124366 1.241
0.726174 -0.124091 1.238
0.728517 -0.123917 1.236
0.730262 -0.123643 1.233
0.734375 -0.12377 1.234
0.737902 -0.123798 1.234
0.740834 -0.123727 1.233
0.741955 -0.123355 1.229
0.741239 -0.122682 1.222
0.744146 -0.122612 1.221
0.748277 -0.122744 1.222
0.753652 -0.123078 1.225
0.755341 -0.122809 1.222
0.758882 -0.122843 1.222
0.759935 -0.122475 1.218
0.764732 -0.122711 1.22
0.765769 -0.122345 1.216
0.771218 -0.122684 1.219
0.772878 -0.122419 1.216
0.776444 -0.122457 1.216
0.779376 -0.122396 1.215
0.78231 -0.122335 1.214
0.785245 -0.122275 1.213
0.786231 -0.121913 1.209
0.788509 -0.121754 1.207
0.790782 -0.121595 1.205
0.79437 -0.121639 1.205
0.797305 -0.121583 1.204
0.800242 -0.121528 1.203
0.801846 -0.121272 1.2
0.806125 -0.121421 1.201
0.808397 -0.121267 1.199
0.812021 -0.121317 1.199
0.814973 -0.121266 1.198
0.817929 -0.121216 1.197
0.822262 -0.12137 1.198
0.824543 -0.121221 1.196
0.824051 -0.120667 1.19
-0.548745 -0.0825927 0.793
-0.547694 -0.0827637 0.795
-0.545952 -0.0828313 0.796
-0.54421 -0.0828994 0.797
-0.542469 -0.0829682 0.798
-0.540052 -0.0829337 0.798
-0.538988 -0.0831076 0.8
-0.537248 -0.0831782 0.801
-0.577716 -0.0961299 0.931
-0.570077 -0.0952778 0.923
-0.566178 -0.0950459 0.921
-0.562907 -0.0949179 0.92
-0.558429 -0.0945842 0.917
-0.552154 -0.0939419 0.911
-0.548331 -0.0937128 0.909
-0.546325 -0.0937936 0.91
-0.543123 -0.0936688 0.909
-0.538146 -0.0932354 0.905
-0.532013 -0.0925968 0.899
-0.528274 -0.0923709 0.897
-0.510956 -0.0914558 0.889
-0.504442 -0.0907189 0.882
-0.497402 -0.08988 0.874
-0.493241 -0.0895558 0.871
-0.490228 -0.0894379 0.87
-0.489466 -0.0897315 0.873
-0.487017 -0.0897172 0.873
-0.484571 -0.0897032 0.873
-0.481023 -0.0894843 0.871
-0.479687 -0.0896766 0.873
-0.478343 -0.0898694 0.875
-0.478079 -0.0902678 0.879
-0.476171 -0.0903585 0.88
-0.473722 -0.0903469 0.88
-0.473954 -0.090849 0.885
-0.481086 -0.0926856 0.903
-0.423362 -0.0873458 0.852
-0.422014 -0.087545 0.854
-0.42164 -0.0879494 0.858
-0.419779 -0.0880466 0.859
-0.418887 -0.0883491 0.862
-0.418462 -0.0887544 0.866
-0.420901 -0.0897747 0.876
-0.42663 -0.0915126 0.893
-0.424193 -0.0915086 0.893
-0.417979 -0.0906851 0.885
-0.414158 -0.0903743 0.882
-0.41269 -0.090576 0.884
-0.409819 -0.0904707 0.883
-0.405109 -0.0899558 0.878
-0.401345 -0.0896461 0.875
-0.399879 -0.0898489 0.877
-0.398403 -0.0900519 0.879
-0.396466 -0.0901528 0.88
-0.394974 -0.0903563 0.882
-0.394361 -0.0907649 0.886
-0.548939 -0.130305 1.272
-0.54807 -0.13092 1.278
-0.545891 -0.131228 1.281
-0.543698 -0.131536 1.284
-0.541068 -0.131742 1.286
-0.539265 -0.132153 1.29
-0.537026 -0.132463 1.293
-0.534359 -0.13267 1.295
-0.531682 -0.132877 1.297
-0.528996 -0.133084 1.299
-0.5263 -0.133292 1.301
-0.523192 -0.133398 1.302
-0.520877 -0.133709 1.305
-0.518944 -0.134122 1.309
-0.51699 -0.134536 1.313
-0.513842 -0.134643 1.314
-0.511466 -0.134955 1.317
-0.508689 -0.135165 1.319
-0.506284 -0.135477 1.322
-0.503104 -0.135585 1.323
-0.500296 -0.135795 1.325
-0.497478 -0.136006 1.327
-0.495022 -0.136319 1.33
-0.49218 -0.13653 1.332
-0.489695 -0.136844 1.335
-0.48683 -0.137056 1.337
-0.484317 -0.13737 1.34
-0.481787 -0.137685 1.343
-0.478886 -0.137897 1.345
-0.475973 -0.138109 1.347
-0.473402 -0.138424 1.35
-0.471162 -0.138842 1.354
-0.467519 -0.13885 1.354
-0.464905 -0.139166 1.357
-0.462274 -0.139482 1.36
-0.459628 -0.139798 1.363
-0.45663 -0.140012 1.365
-0.453622 -0.140226 1.367
-0.450604 -0.14044 1.369
-0.447574 -0.140654 1.371
-0.44421 -0.140766 1.372
-0.441162 -0.140981 1.374
-0.438102 -0.141195 1.376
-0.435348 -0.141513 1.379
-0.432264 -0.141728 1.381
-0.428859 -0.141841 1.382
-0.425756 -0.142056 1.384
-0.422642 -0.142271 1.386
-0.419517 -0.142487 1.388
-0.416381 -0.142703 1.39
-0.41353 -0.143021 1.393
-0.410075 -0.143134 1.394
-0.407781 -0.143659 1.399
-0.404303 -0.143772 1.4
-0.401679 -0.144194 1.404
-0.398748 -0.144513 1.407
-0.396644 -0.14514 1.413
-0.393673 -0.14546 1.416
-0.390409 -0.145676 1.418
-0.386862 -0.14579 1.419
-0.383849 -0.14611 1.422
-0.380552 -0.146327 1.424
-0.376715 -0.146338 1.424
-0.373139 -0.146453 1.425
-0.369298 -0.146464 1.425
-0.365969 -0.146681 1.427
-0.362375 -0.146796 1.428
-0.358776 -0.14691 1.429
-0.35517 -0.147025 1.43
-0.351558 -0.147139 1.431
-0.348183 -0.147357 1.433
-0.344557 -0.147471 1.434
-0.340924 -0.147586 1.435
-0.337286 -0.147701 1.436
-0.333874 -0.147918 1.438
-0.329991 -0.14793 1.438
-0.326107 -0.147941 1.438
-0.321999 -0.14785 1.437
-0.317896 -0.147759 1.436
-0.313797 -0.147668 1.435
-0.275255 -0.15451 1.5
-0.271553 -0.154727 1.502
-0.267484 -0.154738 1.502
-0.263238 -0.154647 1.501
-0.258997 -0.154555 1.5
-0.255101 -0.154668 1.501
-0.2517 -0.155092 1.505
-0.248112 -0.155411 1.508
-0.244507 -0.155731 1.511
-0.241045 -0.156154 1.515
-0.238029 -0.156886 1.522
-0.233591 -0.156691 1.52
-0.229163 -0.156495 1.518
-0.225042 -0.156505 1.518
-0.221066 -0.156618 1.519
-0.218655 -0.157865 1.531
-0.216878 -0.159628 1.548
-0.214458 -0.160978 1.561
-0.21089 -0.161504 1.566
-0.206635 -0.161513 1.566
-0.149512 -0.159766 1.548
-0.14586 -0.160393 1.554
-0.141718 -0.160503 1.555
-0.137129 -0.160097 1.551
0.00231048 -0.14864 1.439
0.00626456 -0.14926 1.445
0.0102161 -0.149363 1.446
0.0141436 -0.149156 1.444
0.0180351 -0.148742 1.44
0.0219504 -0.148637 1.439
0.0259501 -0.149049 1.443
0.030013 -0.149668 1.449
0.0340147 -0.149873 1.451
0.0380534 -0.150181 1.454
0.0421083 -0.150488 1.457
0.0460845 -0.150486 1.457
0.0499918 -0.150277 1.455
0.0538139 -0.149861 1.451
0.0576935 -0.149652 1.449
0.0615194 -0.149339 1.446
0.0654192 -0.149232 1.445
0.0692173 -0.148919 1.442
0.0731002 -0.148812 1.441
0.0769774 -0.148705 1.44
0.0809612 -0.148804 1.441
0.0848323 -0.148697 1.44
0.0886976 -0.148589 1.439
0.0924928 -0.148378 1.437
0.0964108 -0.148373 1.437
0.100259 -0.148265 1.436
0.104101 -0.148157 1.435
0.107862 -0.147945 1.433
0.111455 -0.147527 1.429
0.115026 -0.147108 1.425
0.118659 -0.146792 1.422
0.122533 -0.146786 1.422
0.151182 -0.140947 1.366
0.154218 -0.140321 1.36
0.157802 -0.14021 1.359
0.161736 -0.140409 1.361
0.165802 -0.140711 1.364
0.16976 -0.140909 1.366
0.174108 -0.141417 1.371
0.178484 -0.141924 1.376
0.183151 -0.142638 1.383
0.18799 -0.143454 1.391
0.19301 -0.144374 1.4
0.197798 -0.145087 1.407
0.201476 -0.144974 1.406
0.205732 -0.145275 1.409
0.209112 -0.144956 1.406
0.212323 -0.144534 1.402
0.21582 -0.144319 1.4
0.22056 -0.144927 1.406
0.224854 -0.145227 1.409
0.228351 -0.145011 1.407
0.232168 -0.145001 1.407
0.236822 -0.145506 1.412
0.241843 -0.146217 1.419
0.246902 -0.146928 1.426
0.251118 -0.147124 1.428
0.255345 -0.147319 1.43
0.259582 -0.147514 1.432
0.263829 -0.147709 1.434
0.267339 -0.147493 1.432
0.271027 -0.147379 1.431
0.274325 -0.147059 1.428
0.27858 -0.147254 1.43
0.282253 -0.147139 1.429
0.285919 -0.147025 1.428
0.289579 -0.146911 1.427
0.293234 -0.146797 1.426
0.29709 -0.146785 1.426
0.300523 -0.146568 1.424
0.304373 -0.146557 1.424
0.307789 -0.146339 1.422
0.311851 -0.146431 1.423
0.315918 -0.146522 1.424
0.319765 -0.146511 1.424
0.323156 -0.146293 1.422
0.326306 -0.145973 1.419
0.329673 -0.145756 1.417
0.333498 -0.145744 1.417
0.337085 -0.14563 1.416
0.340424 -0.145412 1.414
0.343996 -0.145298 1.413
0.347316 -0.145081 1.411
0.350873 -0.144966 1.41
0.354173 -0.144749 1.408
0.358224 -0.144841 1.409
0.361252 -0.144521 1.406
0.364783 -0.144407 1.405
0.367783 -0.144087 1.402
0.371561 -0.144076 1.402
0.375072 -0.143961 1.401
0.378306 -0.143745 1.399
0.381801 -0.143631 1.398
0.384464 -0.143209 1.394
0.388218 -0.143198 1.394
0.39141 -0.142981 1.392
0.394023 -0.142559 1.388
0.396614 -0.142138 1.384
0.399472 -0.141819 1.381
0.403482 -0.141911 1.382
0.406612 -0.141695 1.38
0.410326 -0.141685 1.38
0.41284 -0.141264 1.376
0.415635 -0.140945 1.373
0.418108 -0.140525 1.369
0.421483 -0.140412 1.368
0.424853 -0.140299 1.367
0.428844 -0.140392 1.368
0.432524 -0.140382 1.368
0.435567 -0.140168 1.366
0.438598 -0.139953 1.364
0.441619 -0.139739 1.362
0.444955 -0.139627 1.361
0.447627 -0.13931 1.358
0.45128 -0.139301 1.358
0.454598 -0.13919 1.357
0.458248 -0.139181 1.357
0.461218 -0.138968 1.355
0.464176 -0.138754 1.353
0.467124 -0.138541 1.351
0.47041 -0.138431 1.35
0.473691 -0.138321 1.349
0.476613 -0.138108 1.347
0.478811 -0.13769 1.343
0.482065 -0.137581 1.342
0.485315 -0.137471 1.341
0.488559 -0.137362 1.34
0.491431 -0.137151 1.338
0.494663 -0.137042 1.337
0.497889 -0.136933 1.336
0.501111 -0.136825 1.335
0.503572 -0.136512 1.332
0.506778 -0.136404 1.331
0.509596 -0.136193 1.329
0.513177 -0.136188 1.329
0.51598 -0.135979 1.327
0.519948 -0.136077 1.328
0.522739 -0.135868 1.326
0.525917 -0.135761 1.325
0.527892 -0.135348 1.321
0.531053 -0.135242 1.32
0.533804 -0.135033 1.318
0.537361 -0.135031 1.318
0.540919 -0.135028 1.318
0.544064 -0.134923 1.317
0.546374 -0.134614 1.314
0.549087 -0.134407 1.312
0.552633 -0.134405 1.312
0.55618 -0.134404 1.312
0.560155 -0.134506 1.313
0.563277 -0.134403 1.312
0.566828 -0.134403 1.312
0.57038 -0.134403 1.312
0.574371 -0.134505 1.313
0.577929 -0.134506 1.313
0.581045 -0.134405 1.312
0.583266 -0.134099 1.309
0.585921 -0.133896 1.307
0.588567 -0.133693 1.305
0.590749 -0.133388 1.302
0.592918 -0.133083 1.299
0.59553 -0.132882 1.297
0.598596 -0.132783 1.296
0.601194 -0.132582 1.294
0.603315 -0.132279 1.291
0.605892 -0.132078 1.289
0.607988 -0.131776 1.286
0.611495 -0.131782 1.286
0.613571 -0.13148 1.283
0.617074 -0.131486 1.283
0.620097 -0.13139 1.282
0.62263 -0.131193 1.28
0.623198 -0.130585 1.274
0.625703 -0.130388 1.272
0.630673 -0.130704 1.275
0.63417 -0.130713 1.275
0.635669 -0.130312 1.271
0.638657 -0.130219 1.27
0.642149 -0.130229 1.27
0.645135 -0.130137 1.269
0.645562 -0.129533 1.263
0.648015 -0.129339 1.261
0.650461 -0.129146 1.259
0.654456 -0.129261 1.26
0.657938 -0.129274 1.26
0.660898 -0.129185 1.259
0.663857 -0.129097 1.258
0.665752 -0.128803 1.255
0.668701 -0.128716 1.254
0.671111 -0.128526 1.252
0.674592 -0.128542 1.252
0.677535 -0.128456 1.251
0.678843 -0.128062 1.247
0.682321 -0.12808 1.247
0.685804 -0.128098 1.247
0.690396 -0.128322 1.249
0.692781 -0.128136 1.247
0.694042 -0.127745 1.243
0.695847 -0.127457 1.24
0.698767 -0.127376 1.239
0.700552 -0.127089 1.236
0.702895 -0.126905 1.234
0.706375 -0.126928 1.234
0.708711 -0.126746 1.232
0.711617 -0.126667 1.231
0.715104 -0.126692 1.231
0.720348 -0.127026 1.234
0.723267 -0.126949 1.233
0.726186 -0.126873 1.232
0.72792 -0.126592 1.229
0.731428 -0.12662 1.229
0.733147 -0.126339 1.226
0.735456 -0.126163 1.224
0.737759 -0.125987 1.222
0.738843 -0.125605 1.218
0.741739 -0.125533 1.217
0.74586 -0.125669 1.218
0.749993 -0.125805 1.219
0.75043 -0.125323 1.214
0.753327 -0.125254 1.213
0.756226 -0.125186 1.212
0.76038 -0.125325 1.213
0.763916 -0.125362 1.213
0.767459 -0.1254 1.213
0.769739 -0.125231 1.211
0.772014 -0.125064 1.209
0.774926 -0.125 1.208
0.777195 -0.124834 1.206
0.77946 -0.124669 1.204
0.781721 -0.124504 1.202
0.783325 -0.124237 1.199
0.785576 -0.124074 1.197
0.787823 -0.123911 1.195
0.792053 -0.124061 1.196
0.795633 -0.124108 1.196
0.797216 -0.123844 1.193
0.799462 -0.123686 1.191
0.802378 -0.123631 1.19
0.805299 -0.123578 1.189
0.810263 -0.123838 1.191
0.812515 -0.123682 1.189
0.818884 -0.124152 1.193
0.818392 -0.123583 1.187
0.819259 -0.123222 1.183
-0.548783 -0.0847812 0.793
-0.547042 -0.0848498 0.794
-0.546675 -0.0851328 0.797
-0.545612 -0.0853094 0.799
-0.543185 -0.0852731 0.799
-0.54144 -0.0853442 0.8
-0.539696 -0.0854159 0.801
-0.538623 -0.0855948 0.803
-0.569055 -0.0971911 0.917
-0.563927 -0.0967406 0.913
-0.5619 -0.0968205 0.914
-0.557425 -0.0964774 0.911
-0.553581 -0.096241 0.909
-0.547935 -0.0956876 0.904
-0.545338 -0.0956642 0.904
-0.543346 -0.0957472 0.905
-0.539559 -0.0955133 0.903
-0.535789 -0.0952801 0.901
-0.529666 -0.0946246 0.895
-0.527116 -0.0946042 0.895
-0.501777 -0.0921863 0.873
-0.498167 -0.0919581 0.871
-0.49571 -0.0919415 0.871
-0.493257 -0.0919254 0.871
-0.490243 -0.0918043 0.87
-0.489481 -0.0921056 0.873
-0.487031 -0.0920908 0.873
-0.48514 -0.0921819 0.874
-0.482141 -0.0920625 0.873
-0.480799 -0.0922599 0.875
-0.479449 -0.0924576 0.877
-0.478091 -0.0926557 0.879
-0.476183 -0.0927487 0.88
-0.474272 -0.0928421 0.881
-0.474501 -0.0933574 0.886
-0.478434 -0.0946104 0.898
-0.422375 -0.0894449 0.85
-0.421526 -0.0897545 0.853
-0.421154 -0.0901696 0.857
-0.419296 -0.0902693 0.858
-0.41792 -0.0904746 0.86
-0.417017 -0.0907853 0.863
-0.418503 -0.0916222 0.871
-0.42329 -0.0931956 0.886
-0.425622 -0.0942433 0.896
-0.419872 -0.0935031 0.889
-0.414631 -0.0928685 0.883
-0.412226 -0.0928652 0.883
-0.409822 -0.0928622 0.883
-0.406034 -0.0925439 0.88
-0.401348 -0.0920157 0.875
-0.398969 -0.0920135 0.875
-0.397951 -0.092327 0.878
-0.396468 -0.0925356 0.88
-0.395423 -0.0928496 0.883
-0.393917 -0.0930587 0.885
-0.548076 -0.133538 1.27
-0.547641 -0.134274 1.277
-0.545038 -0.134485 1.279
-0.54285 -0.134802 1.282
-0.540225 -0.135013 1.284
-0.538845 -0.13554 1.289
-0.536609 -0.135858 1.292
-0.534357 -0.136175 1.295
-0.53168 -0.136388 1.297
-0.528993 -0.136601 1.299
-0.526701 -0.136919 1.302
-0.523992 -0.137133 1.304
-0.521672 -0.137452 1.307
-0.519337 -0.137771 1.31
-0.51738 -0.138196 1.314
-0.514229 -0.138305 1.315
-0.511461 -0.13852 1.317
-0.508684 -0.138735 1.319
-0.505896 -0.138951 1.321
-0.503098 -0.139166 1.323
-0.500668 -0.139487 1.326
-0.498222 -0.139809 1.329
-0.495388 -0.140025 1.331
-0.492543 -0.140242 1.333
-0.490056 -0.140564 1.336
-0.486824 -0.140676 1.337
-0.48431 -0.140998 1.34
-0.48178 -0.141321 1.343
-0.479234 -0.141644 1.346
-0.476319 -0.141862 1.348
-0.473394 -0.14208 1.35
-0.470806 -0.142404 1.353
-0.467511 -0.142517 1.354
-0.464896 -0.142841 1.357
-0.462266 -0.143165 1.36
-0.459619 -0.14349 1.363
-0.456622 -0.143709 1.365
-0.453614 -0.143929 1.367
-0.450595 -0.144148 1.369
-0.447239 -0.144263 1.37
-0.444201 -0.144483 1.372
-0.441473 -0.144809 1.375
-0.438729 -0.145134 1.378
-0.435654 -0.145355 1.38
-0.432254 -0.14547 1.381
-0.429159 -0.145691 1.383
-0.425438 -0.145701 1.383
-0.422022 -0.145817 1.384
-0.418902 -0.146038 1.386
-0.416071 -0.146365 1.389
-0.413817 -0.146902 1.394
-0.411536 -0.14744 1.399
-0.408936 -0.147873 1.403
-0.406025 -0.1482 1.406
-0.403098 -0.148527 1.409
-0.399871 -0.148749 1.411
-0.397194 -0.149182 1.415
-0.393661 -0.149299 1.416
-0.389847 -0.149311 1.416
-0.386306 -0.149428 1.417
-0.383028 -0.14965 1.419
-0.379739 -0.149873 1.421
-0.376174 -0.14999 1.422
-0.372604 -0.150107 1.423
-0.368768 -0.150119 1.423
-0.365188 -0.150236 1.424
-0.361602 -0.150354 1.425
-0.358262 -0.150577 1.427
-0.354413 -0.150589 1.427
-0.350809 -0.150706 1.428
-0.3472 -0.150824 1.429
-0.343824 -0.151047 1.431
-0.3402 -0.151164 1.432
-0.336335 -0.151176 1.432
-0.332701 -0.151294 1.433
-0.328832 -0.151306 1.433
-0.324735 -0.151212 1.432
-0.320643 -0.151118 1.431
-0.316998 -0.151236 1.432
-0.31291 -0.151142 1.431
-0.274326 -0.158058 1.495
-0.270276 -0.158069 1.495
-0.266582 -0.158292 1.497
-0.262525 -0.158304 1.497
-0.258986 -0.158632 1.5
-0.25526 -0.158855 1.502
-0.252023 -0.159395 1.507
-0.248266 -0.159617 1.509
-0.244173 -0.159628 1.509
-0.240398 -0.159851 1.511
-0.237393 -0.160602 1.518
-0.233427 -0.160718 1.519
-0.229455 -0.160835 1.52
-0.225328 -0.160845 1.52
-0.221638 -0.161173 1.523
-0.218645 -0.16203 1.531
-0.216167 -0.16331 1.543
-0.213212 -0.164272 1.552
-0.209938 -0.165023 1.559
-0.205833 -0.165139 1.56
-0.148249 -0.162603 1.535
-0.144632 -0.163246 1.541
-0.140618 -0.163465 1.543
-0.136592 -0.163684 1.545
0.0023232 -0.153409 1.447
0.00627724 -0.153515 1.448
0.0102155 -0.153302 1.446
0.014133 -0.152983 1.443
0.0180216 -0.152558 1.439
0.0219645 -0.152663 1.44
0.0259668 -0.153086 1.444
0.0300321 -0.153721 1.45
0.0340598 -0.154037 1.453
0.0380514 -0.154141 1.454
0.0420483 -0.154245 1.455
0.0459872 -0.154137 1.454
0.0498862 -0.153922 1.452
0.0537369 -0.153602 1.449
0.057571 -0.153281 1.446
0.0613886 -0.152959 1.443
0.06528 -0.15285 1.442
0.0691177 -0.152635 1.44
0.072995 -0.152525 1.439
0.0768666 -0.152415 1.438
0.0809009 -0.152623 1.44
0.0847101 -0.152407 1.438
0.0885082 -0.15219 1.436
0.0922949 -0.151974 1.434
0.0962046 -0.151969 1.434
0.100044 -0.151858 1.433
0.103878 -0.151746 1.432
0.107555 -0.151423 1.429
0.11106 -0.150888 1.424
0.114779 -0.15067 1.422
0.118486 -0.150452 1.42
0.122269 -0.15034 1.419
0.149735 -0.143288 1.353
0.153417 -0.143281 1.353
0.15733 -0.143485 1.355
0.16149 -0.143901 1.359
0.165673 -0.144316 1.363
0.169876 -0.144732 1.367
0.174481 -0.145465 1.374
0.179643 -0.146621 1.385
0.184996 -0.147882 1.397
0.189198 -0.148191 1.4
0.193277 -0.148394 1.402
0.197367 -0.148596 1.404
0.201037 -0.148481 1.403
0.204263 -0.148049 1.399
0.207466 -0.147616 1.395
0.210647 -0.147183 1.391
0.214885 -0.147491 1.394
0.22055 -0.148751 1.406
0.224525 -0.148847 1.407
0.228666 -0.149048 1.409
0.232817 -0.149249 1.411
0.237147 -0.149556 1.414
0.241492 -0.149863 1.417
0.245852 -0.15017 1.42
0.250404 -0.150582 1.424
0.254263 -0.150571 1.424
0.258483 -0.150772 1.426
0.262346 -0.150761 1.426
0.266208 -0.15075 1.426
0.269691 -0.150527 1.424
0.273546 -0.150516 1.424
0.277595 -0.15061 1.425
0.281451 -0.150599 1.425
0.284907 -0.150376 1.423
0.28835 -0.150153 1.421
0.291988 -0.150036 1.42
0.296037 -0.15013 1.421
0.299457 -0.149907 1.419
0.302865 -0.149685 1.417
0.306262 -0.149462 1.415
0.310086 -0.14945 1.415
0.314131 -0.149544 1.416
0.317956 -0.149532 1.416
0.321327 -0.149309 1.414
0.324685 -0.149086 1.412
0.328265 -0.148969 1.411
0.331603 -0.148746 1.409
0.335168 -0.148629 1.408
0.338727 -0.148511 1.407
0.342524 -0.1485 1.407
0.345828 -0.148277 1.405
0.34912 -0.148054 1.403
0.352652 -0.147937 1.402
0.356941 -0.148136 1.404
0.36047 -0.148019 1.403
0.363992 -0.147902 1.402
0.366722 -0.147468 1.398
0.36996 -0.147246 1.396
0.373454 -0.147129 1.395
0.376672 -0.146906 1.393
0.380152 -0.146789 1.392
0.383074 -0.146462 1.389
0.386536 -0.146345 1.388
0.389712 -0.146123 1.386
0.392593 -0.145796 1.383
0.394597 -0.145152 1.377
0.397437 -0.144825 1.374
0.400259 -0.144498 1.371
0.40395 -0.144487 1.371
0.407343 -0.144371 1.37
0.41043 -0.14415 1.368
0.413506 -0.143929 1.366
0.41596 -0.143497 1.362
0.419316 -0.143382 1.361
0.422357 -0.143161 1.359
0.426326 -0.143256 1.36
0.429353 -0.143036 1.358
0.433325 -0.143131 1.359
0.436659 -0.143017 1.358
0.439664 -0.142796 1.356
0.442658 -0.142577 1.354
0.445311 -0.142252 1.351
0.448945 -0.142243 1.351
0.452244 -0.142128 1.35
0.456214 -0.142225 1.351
0.458827 -0.141901 1.348
0.461767 -0.141682 1.346
0.46435 -0.141358 1.343
0.467963 -0.14135 1.343
0.471577 -0.141342 1.343
0.474482 -0.141124 1.341
0.476664 -0.140696 1.337
0.479903 -0.140583 1.336
0.482774 -0.140366 1.334
0.486365 -0.140359 1.334
0.489588 -0.140247 1.333
0.492806 -0.140135 1.332
0.495647 -0.139919 1.33
0.498478 -0.139702 1.328
0.501298 -0.139486 1.326
0.504108 -0.139271 1.324
0.507291 -0.13916 1.323
0.510469 -0.13905 1.322
0.513642 -0.13894 1.321
0.51642 -0.138725 1.319
0.519581 -0.138616 1.318
0.522341 -0.138401 1.316
0.525491 -0.138292 1.315
0.528233 -0.138079 1.313
0.531371 -0.13797 1.312
0.534912 -0.137967 1.312
0.538043 -0.13786 1.311
0.540757 -0.137647 1.309
0.543877 -0.13754 1.308
0.546993 -0.137433 1.307
0.550104 -0.137326 1.306
0.554059 -0.13743 1.307
0.557594 -0.137429 1.307
0.560701 -0.137324 1.306
0.563372 -0.137113 1.304
0.567337 -0.137218 1.305
0.571309 -0.137324 1.306
0.574408 -0.13722 1.305
0.576175 -0.1368 1.301
0.578366 -0.136486 1.298
0.580992 -0.136278 1.296
0.58451 -0.13628 1.296
0.587576 -0.136177 1.295
0.590182 -0.13597 1.293
0.593238 -0.135868 1.292
0.595829 -0.135662 1.29
0.59841 -0.135455 1.288
0.600983 -0.13525 1.286
0.604017 -0.135149 1.285
0.606575 -0.134944 1.283
0.609123 -0.134739 1.281
0.611186 -0.13443 1.278
0.615157 -0.134542 1.279
0.617686 -0.134338 1.277
0.619233 -0.133925 1.273
0.619782 -0.133301 1.267
0.622268 -0.133099 1.265
0.625735 -0.133108 1.265
0.6302 -0.133327 1.267
0.631677 -0.132916 1.263
0.63565 -0.133031 1.264
0.637103 -0.13262 1.26
0.639553 -0.132421 1.258
0.640973 -0.132011 1.254
0.644944 -0.132128 1.255
0.64789 -0.132035 1.254
0.651872 -0.132153 1.255
0.654296 -0.131956 1.253
0.657763 -0.13197 1.253
0.662288 -0.132195 1.255
0.664706 -0.131999 1.253
0.667116 -0.131804 1.251
0.668983 -0.131504 1.248
0.672453 -0.131521 1.248
0.676469 -0.131643 1.249
0.677772 -0.131239 1.245
0.681245 -0.131257 1.245
0.683623 -0.131065 1.243
0.688757 -0.131401 1.246
0.690578 -0.131104 1.243
0.691829 -0.130703 1.239
0.693623 -0.130408 1.236
0.69484 -0.130007 1.232
0.697173 -0.129818 1.23
0.69836 -0.129419 1.226
0.702392 -0.129548 1.227
0.704708 -0.129361 1.225
0.708752 -0.129491 1.226
0.712225 -0.129516 1.226
0.717455 -0.12986 1.229
0.720947 -0.129886 1.229
0.724445 -0.129914 1.229
0.725579 -0.129519 1.225
0.727886 -0.129337 1.223
0.72899 -0.128943 1.219
0.73128 -0.128762 1.217
0.734771 -0.128792 1.217
0.735235 -0.128295 1.212
0.739334 -0.128433 1.213
0.742219 -0.12836 1.212
0.746335 -0.1285 1.213
0.748609 -0.128323 1.211
0.749015 -0.127828 1.206
0.752518 -0.127864 1.206
0.754148 -0.127583 1.203
0.760175 -0.128045 1.207
0.763702 -0.128083 1.207
0.7666 -0.128017 1.206
0.767584 -0.127632 1.202
0.769193 -0.127354 1.199
0.770792 -0.127077 1.196
0.773676 -0.127014 1.195
0.777212 -0.127057 1.195
0.782063 -0.127314 1.197
0.783652 -0.127041 1.194
0.783254 -0.126448 1.188
0.784153 -0.126069 1.184
0.788363 -0.126224 1.185
0.79125 -0.126166 1.184
0.794141 -0.126109 1.183
0.797035 -0.126053 1.182
0.801286 -0.126212 1.183
0.806914 -0.126585 1.186
0.809836 -0.126532 1.185
0.814134 -0.126694 1.186
0.815001 -0.126323 1.182
0.816546 -0.126059 1.179
-0.549514 -0.0870799 0.794
-0.548459 -0.0872598 0.796
-0.547398 -0.0874402 0.798
-0.546332 -0.0876212 0.8
-0.544581 -0.0876934 0.801
-0.54283 -0.0877661 0.802
-0.541079 -0.0878395 0.803
-0.541341 -0.0882415 0.807
-0.564739 -0.0989371 0.91
-0.560865 -0.0986925 0.908
-0.557008 -0.0984486 0.906
-0.551332 -0.0978795 0.901
-0.547516 -0.0976372 0.899
-0.544322 -0.097504 0.898
-0.543551 -0.0978058 0.901
-0.541567 -0.0978909 0.902
-0.537191 -0.0975425 0.899
-0.531053 -0.0968694 0.893
-0.524953 -0.0961971 0.887
-0.521247 -0.0959594 0.885
-0.498346 -0.0939131 0.867
-0.495896 -0.0938957 0.867
-0.49345 -0.0938787 0.867
-0.491574 -0.0939705 0.868
-0.489695 -0.0940626 0.869
-0.488375 -0.0942635 0.871
-0.486488 -0.0943565 0.872
-0.485154 -0.0945581 0.874
-0.482155 -0.0944355 0.873
-0.480813 -0.0946379 0.875
-0.479463 -0.0948407 0.877
-0.478648 -0.0951519 0.88
-0.476737 -0.0952472 0.881
-0.474823 -0.095343 0.882
-0.474512 -0.0957633 0.886
-0.475781 -0.0965082 0.893
-0.422878 -0.0918571 0.851
-0.422026 -0.0921746 0.854
-0.42116 -0.0924924 0.857
-0.41979 -0.0927026 0.859
-0.418411 -0.092913 0.861
-0.417022 -0.0931237 0.863
-0.417546 -0.0937664 0.869
-0.421384 -0.0951645 0.882
-0.425151 -0.0965628 0.895
-0.421765 -0.0963429 0.893
-0.415574 -0.0954761 0.885
-0.412696 -0.0953648 0.884
-0.410753 -0.0954695 0.885
-0.407421 -0.0952508 0.883
-0.402726 -0.0947089 0.878
-0.398971 -0.094383 0.875
-0.3975 -0.0945966 0.877
-0.39692 -0.0950263 0.881
-0.395424 -0.0952404 0.883
-0.393473 -0.095347 0.884
-0.547213 -0.136761 1.268
-0.547212 -0.137624 1.276
-0.545038 -0.137948 1.279
-0.542425 -0.138164 1.281
-0.540224 -0.138489 1.284
-0.538426 -0.138922 1.288
-0.536607 -0.139355 1.292
-0.534355 -0.139681 1.295
-0.531677 -0.139899 1.297
-0.52899 -0.140117 1.299
-0.526294 -0.140336 1.301
-0.523989 -0.140662 1.304
-0.522067 -0.141097 1.308
-0.519729 -0.141425 1.311
-0.517375 -0.141753 1.314
-0.514224 -0.141865 1.315
-0.511456 -0.142085 1.317
-0.508293 -0.142198 1.318
-0.505891 -0.142527 1.321
-0.503093 -0.142748 1.323
-0.500662 -0.143077 1.326
-0.497841 -0.143299 1.328
-0.495382 -0.143628 1.331
-0.492537 -0.143851 1.333
-0.490416 -0.144289 1.337
-0.487545 -0.144511 1.339
-0.484664 -0.144734 1.341
-0.481773 -0.144957 1.343
-0.479227 -0.145289 1.346
-0.476312 -0.145512 1.348
-0.473386 -0.145736 1.35
-0.470798 -0.146068 1.353
-0.467848 -0.146292 1.355
-0.464888 -0.146516 1.357
-0.461577 -0.146633 1.358
-0.459273 -0.147073 1.362
-0.456278 -0.147298 1.364
-0.453604 -0.147631 1.367
-0.450585 -0.147857 1.369
-0.447556 -0.148082 1.371
-0.444191 -0.1482 1.372
-0.441464 -0.148534 1.375
-0.438401 -0.14876 1.377
-0.435328 -0.148986 1.379
-0.432244 -0.149212 1.381
-0.429149 -0.149438 1.383
-0.426043 -0.149665 1.385
-0.422316 -0.149675 1.385
-0.419496 -0.15001 1.388
-0.417258 -0.150562 1.393
-0.414993 -0.151113 1.398
-0.412701 -0.151664 1.403
-0.41009 -0.152108 1.407
-0.406591 -0.152228 1.408
-0.403087 -0.152347 1.409
-0.399576 -0.152467 1.41
-0.396621 -0.152803 1.413
-0.392816 -0.152814 1.413
-0.38901 -0.152826 1.413
-0.385476 -0.152946 1.414
-0.381937 -0.153066 1.415
-0.378391 -0.153186 1.416
-0.37484 -0.153306 1.417
-0.371021 -0.153318 1.417
-0.36746 -0.153438 1.418
-0.36415 -0.153667 1.42
-0.360829 -0.153895 1.422
-0.357245 -0.154015 1.423
-0.353656 -0.154136 1.424
-0.349815 -0.154148 1.424
-0.346216 -0.154268 1.425
-0.342611 -0.154389 1.426
-0.338762 -0.154401 1.426
-0.335383 -0.15463 1.428
-0.331528 -0.154642 1.428
-0.327902 -0.154762 1.429
-0.323816 -0.154666 1.428
-0.320183 -0.154787 1.429
-0.316322 -0.154799 1.429
-0.312243 -0.154702 1.428
-0.273213 -0.16147 1.489
-0.269542 -0.161698 1.491
-0.266036 -0.162035 1.494
-0.262514 -0.162372 1.497
-0.259147 -0.162818 1.501
-0.255418 -0.163046 1.503
-0.251678 -0.163274 1.505
-0.247268 -0.163069 1.503
-0.243191 -0.16308 1.503
-0.23975 -0.163525 1.507
-0.236443 -0.164078 1.512
-0.233109 -0.164632 1.517
-0.22884 -0.164534 1.516
-0.22517 -0.16487 1.519
-0.221628 -0.165315 1.523
-0.218777 -0.166302 1.532
-0.216017 -0.167398 1.542
-0.212927 -0.168277 1.55
-0.209793 -0.169155 1.558
-0.205692 -0.169274 1.559
-0.147373 -0.165803 1.526
-0.143593 -0.166245 1.53
-0.139882 -0.166796 1.535
-0.136054 -0.167238 1.539
0.00232629 -0.157568 1.449
0.00627257 -0.15735 1.447
0.0102008 -0.157023 1.444
0.0141225 -0.156805 1.442
0.0180332 -0.156587 1.44
0.0219938 -0.156803 1.442
0.0260193 -0.157345 1.447
0.030072 -0.157888 1.452
0.0341049 -0.158212 1.455
0.0380756 -0.15821 1.455
0.0420172 -0.158099 1.454
0.0459215 -0.157879 1.452
0.0497805 -0.157551 1.449
0.0535857 -0.157113 1.445
0.0574087 -0.156784 1.442
0.0613002 -0.156672 1.441
0.065186 -0.15656 1.44
0.0690661 -0.156447 1.439
0.0728897 -0.156226 1.437
0.0767556 -0.156114 1.436
0.0806719 -0.156109 1.436
0.0844701 -0.155888 1.434
0.088257 -0.155666 1.432
0.0920971 -0.155552 1.431
0.0958642 -0.15533 1.429
0.0996899 -0.155216 1.428
0.103365 -0.154884 1.425
0.107023 -0.154553 1.422
0.110586 -0.154112 1.418
0.114208 -0.153781 1.415
0.117896 -0.153557 1.413
0.121573 -0.153334 1.411
0.149396 -0.146644 1.35
0.153409 -0.146962 1.353
0.157322 -0.147172 1.355
0.161483 -0.147598 1.359
0.165786 -0.148133 1.364
0.170365 -0.148885 1.371
0.175616 -0.15018 1.383
0.180801 -0.151366 1.394
0.18512 -0.151791 1.398
0.187972 -0.151022 1.391
0.191752 -0.151013 1.391
0.195671 -0.151112 1.392
0.199308 -0.150994 1.391
0.203523 -0.151311 1.394
0.207308 -0.151301 1.394
0.211395 -0.151508 1.396
0.216108 -0.15215 1.402
0.220854 -0.152791 1.408
0.224674 -0.15278 1.408
0.228493 -0.15277 1.408
0.232642 -0.152977 1.41
0.236801 -0.153183 1.412
0.2408 -0.153281 1.413
0.244803 -0.153379 1.414
0.249338 -0.153802 1.418
0.253359 -0.153899 1.419
0.257566 -0.154105 1.421
0.261231 -0.153985 1.42
0.26489 -0.153865 1.419
0.268354 -0.153637 1.417
0.27219 -0.153626 1.417
0.276025 -0.153614 1.417
0.280057 -0.153711 1.418
0.283494 -0.153483 1.416
0.287121 -0.153363 1.415
0.290743 -0.153243 1.414
0.294358 -0.153123 1.413
0.297968 -0.153003 1.412
0.301357 -0.152774 1.41
0.304952 -0.152654 1.409
0.308541 -0.152534 1.408
0.312567 -0.15263 1.409
0.316148 -0.15251 1.408
0.319724 -0.15239 1.407
0.322834 -0.152053 1.404
0.326857 -0.152149 1.405
0.330179 -0.15192 1.403
0.333728 -0.1518 1.402
0.33703 -0.151572 1.4
0.340565 -0.151451 1.399
0.344093 -0.151331 1.398
0.347117 -0.150995 1.395
0.350628 -0.150875 1.394
0.354641 -0.150971 1.395
0.35866 -0.151067 1.396
0.362683 -0.151164 1.397
0.365924 -0.150935 1.395
0.368888 -0.150599 1.392
0.371836 -0.150263 1.389
0.375308 -0.150143 1.388
0.378775 -0.150023 1.387
0.381959 -0.149795 1.385
0.385133 -0.149568 1.383
0.388014 -0.149232 1.38
0.390594 -0.148788 1.376
0.393153 -0.148344 1.372
0.39569 -0.147901 1.368
0.398789 -0.147674 1.366
0.401877 -0.147447 1.364
0.405548 -0.147436 1.364
0.408619 -0.147209 1.362
0.411679 -0.146982 1.36
0.414422 -0.146648 1.357
0.417458 -0.146421 1.355
0.420482 -0.146195 1.353
0.423809 -0.146077 1.352
0.426814 -0.145851 1.35
0.430765 -0.145949 1.351
0.434078 -0.145831 1.35
0.437061 -0.145606 1.348
0.439706 -0.145272 1.345
0.442336 -0.144939 1.342
0.445946 -0.14493 1.342
0.449221 -0.144813 1.341
0.452828 -0.144804 1.341
0.456095 -0.144688 1.34
0.459014 -0.144463 1.338
0.461922 -0.144239 1.336
0.465168 -0.144123 1.335
0.46876 -0.144115 1.335
0.471998 -0.143999 1.334
0.474874 -0.143776 1.332
0.477741 -0.143553 1.33
0.480596 -0.14333 1.328
0.483077 -0.142999 1.325
0.486276 -0.142885 1.324
0.48947 -0.14277 1.323
0.493032 -0.142764 1.323
0.49622 -0.14265 1.322
0.499402 -0.142537 1.321
0.501818 -0.142207 1.318
0.504985 -0.142094 1.317
0.507375 -0.141765 1.314
0.510916 -0.141761 1.314
0.513283 -0.141432 1.311
0.516423 -0.14132 1.31
0.519559 -0.141208 1.309
0.523089 -0.141205 1.309
0.525816 -0.140985 1.307
0.528938 -0.140874 1.306
0.531647 -0.140656 1.304
0.534758 -0.140545 1.303
0.537863 -0.140435 1.302
0.54138 -0.140433 1.302
0.54448 -0.140324 1.301
0.547154 -0.140106 1.299
0.550243 -0.139997 1.298
0.553754 -0.139997 1.298
0.556837 -0.139888 1.297
0.560347 -0.139888 1.297
0.564294 -0.139996 1.298
0.567811 -0.139997 1.298
0.570448 -0.139782 1.296
0.572633 -0.13946 1.293
0.575695 -0.139354 1.292
0.577407 -0.138924 1.288
0.580453 -0.138819 1.287
0.583041 -0.138606 1.285
0.586534 -0.138609 1.285
0.589568 -0.138504 1.284
0.592599 -0.1384 1.283
0.595162 -0.138189 1.281
0.598184 -0.138086 1.28
0.601202 -0.137983 1.279
0.603743 -0.137772 1.277
0.605801 -0.137455 1.274
0.607844 -0.137137 1.271
0.611316 -0.137144 1.271
0.613823 -0.136935 1.269
0.616322 -0.136727 1.267
0.617833 -0.136303 1.263
0.620309 -0.136096 1.261
0.622776 -0.135889 1.259
0.626728 -0.136006 1.26
0.629187 -0.1358 1.258
0.631637 -0.135595 1.256
0.632057 -0.134958 1.25
0.634989 -0.134861 1.249
0.637407 -0.134656 1.247
0.642387 -0.134993 1.25
0.645319 -0.134897 1.249
0.649808 -0.135127 1.251
0.651177 -0.134708 1.247
0.654627 -0.134722 1.247
0.657026 -0.134521 1.245
0.660477 -0.134536 1.245
0.660733 -0.133904 1.239
0.663639 -0.133812 1.238
0.667082 -0.133829 1.238
0.671612 -0.134063 1.24
0.67289 -0.133648 1.236
0.676886 -0.133775 1.237
0.679792 -0.133686 1.236
0.684354 -0.133922 1.238
0.685599 -0.13351 1.234
0.686825 -0.133098 1.23
0.688594 -0.132795 1.227
0.689786 -0.132384 1.223
0.693228 -0.132407 1.223
0.695536 -0.132214 1.221
0.699554 -0.132346 1.222
0.702431 -0.132263 1.221
0.705308 -0.13218 1.22
0.709347 -0.132314 1.221
0.712812 -0.132341 1.221
0.715695 -0.13226 1.22
0.719757 -0.132396 1.221
0.720869 -0.131991 1.217
0.723749 -0.131912 1.216
0.725432 -0.131617 1.213
0.727705 -0.131431 1.211
0.732388 -0.13168 1.213
0.732841 -0.131169 1.208
0.736929 -0.131311 1.209
0.737966 -0.13091 1.205
0.742063 -0.131054 1.206
0.744936 -0.13098 1.205
0.745325 -0.130473 1.2
0.748187 -0.130401 1.199
0.749797 -0.130112 1.196
0.755805 -0.130586 1.2
0.759945 -0.130735 1.201
0.763462 -0.130775 1.201
0.765071 -0.130489 1.198
0.766669 -0.130205 1.195
0.768257 -0.129921 1.192
0.770482 -0.129746 1.19
0.775956 -0.130118 1.193
0.778842 -0.130054 1.192
0.780417 -0.129773 1.189
0.780004 -0.129166 1.183
0.782876 -0.129105 1.182
0.786416 -0.129154 1.182
0.7913 -0.129423 1.184
0.793521 -0.129255 1.182
0.797761 -0.129417 1.183
0.80134 -0.12947 1.183
0.806288 -0.129743 1.185
0.807841 -0.12947 1.182
0.809385 -0.129198 1.179
0.810921 -0.128927 1.176
0.813141 -0.128766 1.174
-0.549554 -0.0892721 0.794
-0.548499 -0.0894565 0.796
-0.548123 -0.0897537 0.799
-0.547737 -0.0900514 0.802
-0.547338 -0.0903496 0.805
-0.547605 -0.0907605 0.809
-0.548527 -0.0912839 0.814
-0.550768 -0.0920317 0.821
-0.562284 -0.10098 0.906
-0.558422 -0.100729 0.904
-0.553346 -0.100256 0.9
-0.547686 -0.0996728 0.895
-0.544496 -0.0995358 0.894
-0.541922 -0.0995107 0.894
-0.540559 -0.0997088 0.896
-0.536787 -0.0994623 0.894
-0.530641 -0.0987716 0.888
-0.523344 -0.0978593 0.88
-0.516097 -0.096948 0.872
-0.511844 -0.0965934 0.869
-0.497214 -0.0960517 0.865
-0.49477 -0.0960338 0.865
-0.492329 -0.0960164 0.865
-0.491591 -0.0963324 0.868
-0.490275 -0.0965378 0.87
-0.488951 -0.0967435 0.872
-0.487061 -0.0968388 0.873
-0.485724 -0.0970453 0.875
-0.482722 -0.0969196 0.874
-0.481926 -0.0972379 0.877
-0.481116 -0.0975565 0.88
-0.479205 -0.0976537 0.881
-0.476749 -0.0976406 0.881
-0.474297 -0.0976278 0.881
-0.474524 -0.0981695 0.886
-0.474727 -0.0987114 0.891
-0.422884 -0.0941641 0.851
-0.421044 -0.0942683 0.852
-0.420183 -0.094594 0.855
-0.419307 -0.0949201 0.858
-0.418416 -0.0952464 0.861
-0.417027 -0.0954623 0.863
-0.41659 -0.0958998 0.867
-0.418044 -0.0967799 0.875
-0.422781 -0.0984345 0.89
-0.423186 -0.0990938 0.896
-0.416517 -0.0980946 0.887
-0.413166 -0.0978698 0.885
-0.411684 -0.0980877 0.887
-0.408808 -0.0979741 0.886
-0.404105 -0.0974184 0.881
-0.399429 -0.0968631 0.876
-0.397955 -0.0970821 0.878
-0.396922 -0.0974119 0.881
-0.395873 -0.0977419 0.884
-0.393475 -0.0977405 0.884
-0.544624 -0.13953 1.262
-0.546354 -0.140857 1.274
-0.544611 -0.141299 1.278
-0.542424 -0.141632 1.281
-0.539802 -0.141854 1.283
-0.538424 -0.142408 1.288
-0.537436 -0.143073 1.294
-0.535178 -0.143407 1.297
-0.532495 -0.143631 1.299
-0.529395 -0.143744 1.3
-0.526695 -0.143968 1.302
-0.524387 -0.144303 1.305
-0.522064 -0.144638 1.308
-0.520122 -0.145084 1.312
-0.517371 -0.145309 1.314
-0.51422 -0.145424 1.315
-0.510675 -0.145429 1.315
-0.508288 -0.145766 1.318
-0.505503 -0.145992 1.32
-0.503087 -0.146329 1.323
-0.501034 -0.146777 1.327
-0.497835 -0.146894 1.328
-0.495375 -0.147232 1.331
-0.492531 -0.147459 1.333
-0.490776 -0.148019 1.338
-0.487902 -0.148247 1.34
-0.484657 -0.148365 1.341
-0.481407 -0.148483 1.342
-0.478863 -0.148822 1.345
-0.476304 -0.149162 1.348
-0.473378 -0.149391 1.35
-0.470442 -0.149621 1.352
-0.467495 -0.14985 1.354
-0.464879 -0.150191 1.357
-0.461909 -0.150421 1.359
-0.45859 -0.150541 1.36
-0.455935 -0.150882 1.363
-0.453263 -0.151223 1.366
-0.450905 -0.151675 1.37
-0.447546 -0.151796 1.371
-0.444505 -0.152027 1.373
-0.441775 -0.152369 1.376
-0.43871 -0.152601 1.378
-0.435318 -0.152722 1.379
-0.431921 -0.152843 1.38
-0.429138 -0.153185 1.383
-0.426955 -0.15375 1.388
-0.42322 -0.153761 1.388
-0.420694 -0.154215 1.392
-0.418146 -0.154669 1.396
-0.415873 -0.155234 1.401
-0.41269 -0.155467 1.403
-0.409496 -0.1557 1.405
-0.405714 -0.155712 1.405
-0.402503 -0.155945 1.407
-0.398714 -0.155956 1.407
-0.395487 -0.15619 1.409
-0.39197 -0.156313 1.41
-0.388172 -0.156324 1.41
-0.384374 -0.156336 1.41
-0.380845 -0.156459 1.411
-0.377577 -0.156693 1.413
-0.374034 -0.156816 1.414
-0.369961 -0.156717 1.413
-0.366412 -0.156841 1.414
-0.363369 -0.157185 1.417
-0.360309 -0.157531 1.42
-0.356731 -0.157654 1.421
-0.352899 -0.157666 1.421
-0.349065 -0.157679 1.421
-0.344989 -0.15758 1.42
-0.341397 -0.157703 1.421
-0.337562 -0.157716 1.421
-0.334196 -0.15795 1.423
-0.330587 -0.158073 1.424
-0.326971 -0.158197 1.425
-0.32335 -0.15832 1.426
-0.319722 -0.158444 1.427
-0.315646 -0.158345 1.426
-0.310044 -0.157469 1.418
-0.273202 -0.165515 1.489
-0.26953 -0.16575 1.491
-0.265846 -0.165984 1.493
-0.262327 -0.166329 1.496
-0.25879 -0.166674 1.499
-0.254557 -0.166575 1.498
-0.250161 -0.166364 1.496
-0.246269 -0.166487 1.497
-0.243018 -0.167054 1.502
-0.239262 -0.167288 1.504
-0.235338 -0.16741 1.505
-0.231869 -0.167866 1.509
-0.228377 -0.168322 1.513
-0.224566 -0.168555 1.515
-0.221617 -0.169456 1.523
-0.218909 -0.170579 1.533
-0.216147 -0.171703 1.543
-0.212917 -0.172492 1.55
-0.209379 -0.173059 1.555
-0.205154 -0.173069 1.555
-0.146689 -0.169177 1.519
-0.14321 -0.169964 1.526
-0.139783 -0.170862 1.534
-0.135959 -0.171315 1.538
0.00232295 -0.161291 1.447
0.00625922 -0.160956 1.444
0.0101932 -0.160844 1.443
0.0141119 -0.160621 1.441
0.0180572 -0.160731 1.442
0.0220231 -0.160953 1.444
0.0260179 -0.161286 1.447
0.0300289 -0.161619 1.45
0.0340093 -0.161729 1.451
0.0380212 -0.161949 1.453
0.0419571 -0.161836 1.452
0.0458558 -0.16161 1.45
0.049709 -0.161273 1.447
0.0535828 -0.161048 1.445
0.0573658 -0.160599 1.441
0.0612544 -0.160484 1.44
0.0651372 -0.160369 1.439
0.0690144 -0.160254 1.438
0.0727844 -0.159916 1.435
0.0765911 -0.159689 1.433
0.0803867 -0.159462 1.431
0.0841122 -0.159123 1.428
0.0878825 -0.158896 1.426
0.0917704 -0.158891 1.426
0.0956578 -0.158886 1.426
0.0994752 -0.158769 1.425
0.102996 -0.158207 1.42
0.106641 -0.157867 1.417
0.11019 -0.157415 1.413
0.113798 -0.157075 1.41
0.117139 -0.156401 1.404
0.120274 -0.155503 1.396
0.149389 -0.150317 1.35
0.153515 -0.150755 1.354
0.157546 -0.151081 1.357
0.161831 -0.15163 1.362
0.166629 -0.152623 1.371
0.171723 -0.153839 1.382
0.176369 -0.15461 1.389
0.180144 -0.154601 1.389
0.183919 -0.154592 1.389
0.186477 -0.153581 1.38
0.190364 -0.153683 1.381
0.193975 -0.153563 1.38
0.198439 -0.154109 1.385
0.2022 -0.1541 1.385
0.207001 -0.154869 1.392
0.211233 -0.155193 1.395
0.216098 -0.155961 1.402
0.22053 -0.156396 1.406
0.224345 -0.156386 1.406
0.228158 -0.156375 1.406
0.232137 -0.156476 1.407
0.236455 -0.156798 1.41
0.240448 -0.156899 1.411
0.244446 -0.156999 1.412
0.248624 -0.15721 1.414
0.252634 -0.15731 1.415
0.256649 -0.15741 1.416
0.2603 -0.157288 1.415
0.263945 -0.157165 1.414
0.267585 -0.157042 1.413
0.27141 -0.157031 1.413
0.275234 -0.157019 1.413
0.278861 -0.156896 1.412
0.282481 -0.156773 1.411
0.286298 -0.156761 1.411
0.290114 -0.15675 1.411
0.293305 -0.156404 1.408
0.29669 -0.15617 1.406
0.300063 -0.155936 1.404
0.304074 -0.156035 1.405
0.307433 -0.155801 1.403
0.311224 -0.155789 1.403
0.314565 -0.155555 1.401
0.318121 -0.155431 1.4
0.321442 -0.155197 1.398
0.325217 -0.155185 1.398
0.32852 -0.154951 1.396
0.33205 -0.154828 1.395
0.335574 -0.154705 1.394
0.339092 -0.154582 1.393
0.342358 -0.154348 1.391
0.345115 -0.153892 1.387
0.348855 -0.15388 1.387
0.352596 -0.153868 1.387
0.357106 -0.154188 1.39
0.360853 -0.154176 1.39
0.3646 -0.154164 1.39
0.367816 -0.153931 1.388
0.370754 -0.153586 1.385
0.374215 -0.153463 1.384
0.377125 -0.153119 1.381
0.380845 -0.153107 1.381
0.383729 -0.152763 1.378
0.386315 -0.152308 1.374
0.38888 -0.151853 1.37
0.391423 -0.151399 1.366
0.394522 -0.151166 1.364
0.397318 -0.150822 1.361
0.400098 -0.150479 1.358
0.402861 -0.150135 1.355
0.406508 -0.150124 1.355
0.409852 -0.150003 1.354
0.412885 -0.149771 1.352
0.415599 -0.149428 1.349
0.418607 -0.149196 1.347
0.421291 -0.148854 1.344
0.424275 -0.148622 1.342
0.427885 -0.148612 1.342
0.431174 -0.148492 1.341
0.434782 -0.148482 1.341
0.437408 -0.14814 1.338
0.440678 -0.14802 1.337
0.444275 -0.148011 1.337
0.447537 -0.147891 1.336
0.451131 -0.147882 1.336
0.454044 -0.147652 1.334
0.456947 -0.147423 1.332
0.459839 -0.147193 1.33
0.462372 -0.146853 1.327
0.465943 -0.146845 1.327
0.46916 -0.146726 1.326
0.472371 -0.146608 1.325
0.475219 -0.146379 1.323
0.478056 -0.146151 1.321
0.480518 -0.145812 1.318
0.483699 -0.145695 1.317
0.487244 -0.145688 1.317
0.490418 -0.145571 1.316
0.494337 -0.145676 1.317
0.497128 -0.145449 1.315
0.499909 -0.145222 1.313
0.502679 -0.144996 1.311
0.505053 -0.144659 1.308
0.508578 -0.144654 1.308
0.510147 -0.144096 1.303
0.514054 -0.144203 1.304
0.51638 -0.143867 1.301
0.520289 -0.143974 1.302
0.522997 -0.143749 1.3
0.52691 -0.143857 1.301
0.529606 -0.143633 1.299
0.532703 -0.14352 1.298
0.53497 -0.143186 1.295
0.538052 -0.143073 1.294
0.541549 -0.143071 1.294
0.545047 -0.14307 1.294
0.548123 -0.142958 1.293
0.551194 -0.142847 1.292
0.555119 -0.142957 1.293
0.558619 -0.142957 1.293
0.562121 -0.142958 1.293
0.564312 -0.142627 1.29
0.567368 -0.142517 1.289
0.569977 -0.142297 1.287
0.573023 -0.142188 1.286
0.57472 -0.141748 1.282
0.578201 -0.141751 1.282
0.580776 -0.141532 1.28
0.583798 -0.141425 1.279
0.585899 -0.141097 1.276
0.58937 -0.141101 1.276
0.591915 -0.140884 1.274
0.59445 -0.140668 1.272
0.597447 -0.140563 1.271
0.60044 -0.140458 1.27
0.602954 -0.140243 1.268
0.604981 -0.139917 1.265
0.607475 -0.139703 1.263
0.609477 -0.139379 1.26
0.611951 -0.139165 1.258
0.614906 -0.139063 1.257
0.617858 -0.138961 1.256
0.619818 -0.138638 1.253
0.622758 -0.138537 1.252
0.625196 -0.138326 1.25
0.628128 -0.138226 1.249
0.630046 -0.137905 1.246
0.632459 -0.137695 1.244
0.635886 -0.137707 1.244
0.639316 -0.137719 1.244
0.642749 -0.137732 1.244
0.646185 -0.137746 1.244
0.648058 -0.137428 1.241
0.651492 -0.137443 1.241
0.654402 -0.137347 1.24
0.656249 -0.13703 1.237
0.656483 -0.136382 1.231
0.658831 -0.136177 1.229
0.663866 -0.136527 1.232
0.667838 -0.136656 1.233
0.670187 -0.136453 1.231
0.673075 -0.136361 1.23
0.675412 -0.136159 1.228
0.678847 -0.136179 1.228
0.681175 -0.135978 1.226
0.683496 -0.135778 1.224
0.68581 -0.135578 1.222
0.686989 -0.135157 1.218
0.689851 -0.135069 1.217
0.691572 -0.13476 1.214
0.695571 -0.134896 1.215
0.699005 -0.134921 1.215
0.702444 -0.134947 1.215
0.705307 -0.134863 1.214
0.70992 -0.135112 1.216
0.712204 -0.134918 1.214
0.71507 -0.134836 1.213
0.71616 -0.134421 1.209
0.719613 -0.134451 1.209
0.722473 -0.13437 1.208
0.724732 -0.13418 1.206
0.728797 -0.134323 1.207
0.729841 -0.133911 1.203
0.733915 -0.134056 1.204
0.735551 -0.133757 1.201
0.738406 -0.133681 1.2
0.741263 -0.133606 1.199
0.742877 -0.133309 1.196
0.744481 -0.133012 1.193
0.746074 -0.132716 1.19
0.751435 -0.13309 1.193
0.756189 -0.133354 1.195
0.757146 -0.132948 1.191
0.758726 -0.132655 1.188
0.761579 -0.132587 1.187
0.765723 -0.132742 1.188
0.767937 -0.132563 1.186
0.770148 -0.132385 1.184
0.772354 -0.132208 1.182
0.775213 -0.132144 1.181
0.777415 -0.131968 1.179
0.779613 -0.131794 1.177
0.782474 -0.131732 1.176
0.786673 -0.131895 1.177
0.789545 -0.131836 1.176
0.791745 -0.131665 1.174
0.795297 -0.131719 1.174
0.799539 -0.131887 1.175
0.801746 -0.131719 1.173
0.803264 -0.131439 1.17
0.807532 -0.13161 1.171
0.80766 -0.131108 1.166
-0.540867 -0.101293 0.888
-0.536491 -0.100926 0.885
-0.531533 -0.100445 0.881
-0.525402 -0.0997365 0.875
-0.51931 -0.0990293 0.869
-0.514445 -0.0985508 0.865
-0.511383 -0.0984148 0.864
-0.509509 -0.0985071 0.865
-0.507632 -0.0985999 0.866
-0.504587 -0.0984656 0.865
-0.502713 -0.0985594 0.866
-0.500836 -0.0986538 0.867
-0.497232 -0.0984072 0.865
-0.494216 -0.0982751 0.864
-0.492346 -0.0983709 0.865
-0.492174 -0.0988082 0.869
-0.490855 -0.0990186 0.871
-0.488967 -0.0991156 0.872
-0.486519 -0.0990995 0.872
-0.485739 -0.0994247 0.875
-0.483841 -0.099523 0.876
-0.483589 -0.0999626 0.88
-0.48113 -0.0999481 0.88
-0.480306 -0.100275 0.883
-0.476763 -0.100034 0.881
-0.475386 -0.100248 0.883
-0.473466 -0.100349 0.884
-0.473141 -0.10079 0.888
-0.511181 -0.111738 0.985
-0.500717 -0.110026 0.97
-0.495473 -0.109448 0.965
-0.487194 -0.108191 0.954
-0.424382 -0.0968114 0.854
-0.422039 -0.0968047 0.854
-0.42068 -0.097025 0.856
-0.419313 -0.0972456 0.858
-0.418908 -0.0976931 0.862
-0.417516 -0.0979143 0.864
-0.416595 -0.0982491 0.867
-0.416615 -0.0988108 0.872
-0.419935 -0.100166 0.884
-0.423663 -0.101635 0.897
-0.418399 -0.100951 0.891
-0.41457 -0.100607 0.888
-0.412151 -0.100603 0.888
-0.410196 -0.100714 0.889
-0.405942 -0.100258 0.885
-0.4008 -0.0995753 0.879
-0.39841 -0.099573 0.879
-0.396924 -0.0997975 0.881
-0.395427 -0.100022 0.883
-0.393921 -0.100247 0.885
-0.539801 -0.145327 1.283
-0.538841 -0.146008 1.289
-0.537018 -0.146463 1.293
-0.535588 -0.147031 1.298
-0.532082 -0.147033 1.298
-0.529392 -0.147263 1.3
-0.526692 -0.147492 1.302
-0.524384 -0.147835 1.305
-0.521661 -0.148065 1.307
-0.519721 -0.148522 1.311
-0.516973 -0.148753 1.313
-0.514215 -0.148984 1.315
-0.51067 -0.148988 1.315
-0.508283 -0.149333 1.318
-0.505497 -0.149565 1.32
-0.503462 -0.150024 1.324
-0.500651 -0.150256 1.326
-0.497454 -0.150375 1.327
-0.494997 -0.150722 1.33
-0.492155 -0.150955 1.332
-0.490402 -0.151528 1.337
-0.487531 -0.151762 1.339
-0.483927 -0.151769 1.339
-0.481758 -0.15223 1.343
-0.478499 -0.152351 1.344
-0.476296 -0.152812 1.348
-0.47337 -0.153047 1.35
-0.470781 -0.153395 1.353
-0.467831 -0.15363 1.355
-0.464871 -0.153866 1.357
-0.4619 -0.154101 1.359
-0.458918 -0.154337 1.361
-0.455925 -0.154573 1.363
-0.453254 -0.154923 1.366
-0.450896 -0.155386 1.37
-0.447863 -0.155623 1.372
-0.444495 -0.155746 1.373
-0.441444 -0.155983 1.375
-0.438381 -0.15622 1.377
-0.434676 -0.15623 1.377
-0.43191 -0.156581 1.38
-0.429438 -0.157046 1.384
-0.42756 -0.157738 1.39
-0.424734 -0.158089 1.393
-0.421892 -0.158441 1.396
-0.418734 -0.158679 1.398
-0.415268 -0.158804 1.399
-0.411502 -0.158815 1.399
-0.408027 -0.15894 1.4
-0.404258 -0.158952 1.4
-0.401061 -0.159191 1.402
-0.397569 -0.159316 1.403
-0.394352 -0.159555 1.405
-0.390846 -0.159681 1.406
-0.387334 -0.159806 1.407
-0.383817 -0.159932 1.408
-0.380023 -0.159944 1.408
-0.376229 -0.159957 1.408
-0.372699 -0.160083 1.409
-0.368902 -0.160095 1.409
-0.365622 -0.160335 1.411
-0.362587 -0.160688 1.414
-0.359282 -0.160928 1.416
-0.355714 -0.161054 1.417
-0.351644 -0.160953 1.416
-0.34807 -0.161079 1.417
-0.344247 -0.161092 1.417
-0.340664 -0.161218 1.418
-0.337075 -0.161344 1.419
-0.333714 -0.161584 1.421
-0.33011 -0.16171 1.422
-0.3265 -0.161837 1.423
-0.298858 -0.157462 1.384
-0.292771 -0.156223 1.373
-0.288007 -0.155666 1.368
-0.284724 -0.155905 1.37
-0.281019 -0.155917 1.37
-0.277718 -0.156156 1.372
-0.274406 -0.156396 1.374
-0.27325 -0.157887 1.387
-0.273556 -0.169788 1.491
-0.270241 -0.170256 1.495
-0.266191 -0.170268 1.495
-0.261789 -0.170052 1.493
-0.257225 -0.169723 1.49
-0.253186 -0.169734 1.49
-0.249314 -0.16986 1.491
-0.245764 -0.170213 1.494
-0.242521 -0.170795 1.499
-0.238296 -0.170692 1.498
-0.233919 -0.170475 1.496
-0.230628 -0.171056 1.501
-0.227309 -0.171637 1.506
-0.223666 -0.17199 1.509
-0.220879 -0.173027 1.518
-0.21847 -0.174406 1.53
-0.216136 -0.175898 1.543
-0.213044 -0.176821 1.551
-0.208965 -0.176945 1.552
-0.204352 -0.176614 1.549
-0.177381 -0.170961 1.499
-0.171454 -0.169145 1.483
-0.166743 -0.168469 1.477
-0.162394 -0.168136 1.474
-0.0579087 -0.157212 1.377
-0.0539557 -0.156645 1.372
-0.050103 -0.156305 1.369
-0.0463342 -0.156194 1.368
-0.0426018 -0.156196 1.368
-0.0389261 -0.156427 1.37
-0.035419 -0.157457 1.379
-0.0319316 -0.158829 1.391
-0.0284191 -0.160429 1.405
-0.02476 -0.161572 1.415
-0.0210314 -0.162601 1.424
-0.0172417 -0.163516 1.432
-0.0133802 -0.164088 1.437
-0.00948484 -0.164545 1.441
-0.00555988 -0.164774 1.443
-0.00162287 -0.164888 1.444
0.0023164 -0.164774 1.443
0.0062502 -0.16466 1.442
0.0101715 -0.164431 1.44
0.0141111 -0.164544 1.441
0.0180687 -0.164772 1.443
0.0220372 -0.164999 1.445
0.0260164 -0.165226 1.447
0.0299858 -0.165339 1.448
0.0339371 -0.165337 1.448
0.0379144 -0.165449 1.449
0.0418681 -0.165447 1.449
0.04579 -0.16533 1.448
0.0495689 -0.164756 1.443
0.0533944 -0.164411 1.44
0.0572034 -0.164065 1.437
0.0611234 -0.164062 1.437
0.0649526 -0.16383 1.435
0.0687706 -0.163598 1.433
0.0724761 -0.163138 1.429
0.0762128 -0.162791 1.426
0.0799329 -0.162444 1.423
0.0836953 -0.162211 1.421
